# .PCD v0.7 - Point Cloud Data file format
VERSION 0.7
FIELDS x y z rgba
SIZE 4 4 4 4
TYPE F F F U
COUNT 1 1 1 1
WIDTH 1088
HEIGHT 1
VIEWPOINT 0 0 0 1 0 0 0
POINTS 1088
DATA ascii
0.19202857 0.25086287 0.85800004 4294304755
0.19366287 0.25086287 0.85800004 4294235891
0.19529715 0.25086287 0.85800004 4294170354
0.19693144 0.25086287 0.85800004 4294103794
0.19856572 0.25086287 0.85800004 4294106354
0.20020001 0.25086287 0.85800004 4293843699
0.20183429 0.25086287 0.85800004 4293581043
0.2029943 0.25027812 0.85600007 4293578227
0.20462477 0.25027812 0.85600007 4293578991
0.20625526 0.25027812 0.85600007 4293446124
0.20788573 0.25027812 0.85600007 4293315819
0.20951621 0.25027812 0.85600007 4293250027
0.21065333 0.24969333 0.85400003 4293184491
0.21228001 0.24969333 0.85400003 4293051884
0.21390668 0.24969333 0.85400003 4292986085
0.21553335 0.24969333 0.85400003 4292855006
0.21716 0.24969333 0.85400003 4292658392
0.21878667 0.24969333 0.85400003 4292653779
0.22041334 0.24969333 0.85400003 4292588506
0.22204001 0.24969333 0.85400003 4292652513
0.22366667 0.24969333 0.85400003 4292717532
0.22529334 0.24969333 0.85400003 4292194007
0.22692001 0.24969333 0.85400003 4291670996
0.22854668 0.24969333 0.85400003 4291732433
0.23017333 0.24969333 0.85400003 4291798220
0.2318 0.24969333 0.85400003 4291404744
0.23342668 0.24969333 0.85400003 4291076805
0.23505335 0.24969333 0.85400003 4290944963
0.23668 0.24969333 0.85400003 4290813376
0.23886478 0.25027812 0.85600007 4290615742
0.23993334 0.24969333 0.85400003 4290417594
0.24212573 0.25027812 0.85600007 4290089911
0.2437562 0.25027812 0.85600007 4289762485
0.24538668 0.25027812 0.85600007 4289891508
0.24701715 0.25027812 0.85600007 4290022065
0.24864763 0.25027812 0.85600007 4289825198
0.25027812 0.25027812 0.85600007 4289693105
0.2519086 0.25027812 0.85600007 4289758389
0.25353909 0.25027812 0.85600007 4289888680
0.25576574 0.25086287 0.85800004 4289560475
0.25799999 0.25144765 0.86000001 4289298078
0.2596381 0.25144765 0.86000001 4289298082
0.26127619 0.25144765 0.86000001 4289232034
0.26352572 0.25203237 0.86200005 4289035938
0.26516765 0.25203237 0.86200005 4288839841
0.26680955 0.25203237 0.86200005 4288577185
0.26845145 0.25203237 0.86200005 4288314534
0.27009335 0.25203237 0.86200005 4288511403
0.27268097 0.25290954 0.86500007 4288707234
0.27432859 0.25290954 0.86500007 4288444826
0.27597621 0.25290954 0.86500007 4288182683
0.27762383 0.25290954 0.86500007 4288051357
0.27927145 0.25290954 0.86500007 4287919518
0.28156856 0.25349429 0.86700004 4287853472
0.28387335 0.25407907 0.86900002 4287721886
0.28618574 0.2546638 0.87100005 4287657116
0.28784478 0.2546638 0.87100005 4287591324
0.29016858 0.25524858 0.87300003 4287393948
0.29183143 0.25524858 0.87300003 4287262874
0.29282191 0.2546638 0.87100005 4287262361
0.29515713 0.25524858 0.87300003 4287261333
0.29750001 0.25583336 0.87500006 4287064721
0.30019239 0.2567105 0.87800002 4286869392
0.3025524 0.25729525 0.88000005 4286671759
0.3042286 0.25729525 0.88000005 4286539149
0.30590478 0.25729525 0.88000005 4286407819
0.30827999 0.25788 0.88200003 4286341511
0.31066287 0.25846478 0.88400006 4286210691
0.31340665 0.25934193 0.88700002 4286144639
0.31580669 0.25992668 0.88900006 4285947771
0.31750003 0.25992668 0.88900006 4285750904
0.31991145 0.26051143 0.89100003 4285488245
0.32341334 0.26197335 0.89600003 4285289837
0.32584575 0.2625581 0.89800006 4285223270
0.32755619 0.2625581 0.89800006 4285222498
0.37121147 0.28419429 0.97200006 4281670427
0.37306288 0.28419429 0.97200006 4282194970
0.37375715 0.28331715 0.96900004 4282324505
0.37444001 0.28244001 0.96600002 4282520596
0.3743324 0.28097811 0.96100003 4282586384
0.37498862 0.28010097 0.95800006 4282652438
0.37681335 0.28010097 0.95800006 4282848029
0.37863812 0.28010097 0.95800006 4283109150
0.37847716 0.27863905 0.95300007 4283240735
0.37909526 0.27776194 0.95000005 4283438356
0.38010287 0.27717716 0.94800007 4283175945
0.38070002 0.27630001 0.94500005 4282979348
0.37926191 0.27396095 0.93700004 4283373856
0.38104668 0.27396095 0.93700004 4283769129
0.3820143 0.2733762 0.93500006 4283572530
0.38256383 0.27249905 0.93200004 4283441730
0.38351431 0.2719143 0.93000007 4284037203
0.38404289 0.27103716 0.92700005 4284695620
0.38580859 0.27103716 0.92700005 4285153334
0.38673812 0.27045241 0.92500007 4285676595
0.38430002 0.26752856 0.91500002 4285872944
0.38604286 0.26752856 0.91500002 4286069557
0.38693812 0.26694381 0.91300005 4284296762
0.38654861 0.26548192 0.90800005 4282524227
0.3882781 0.26548192 0.90800005 4281538892
0.38700095 0.26343524 0.90100002 4280554831
0.38871714 0.26343524 0.90100002 4280161619
0.38826668 0.26197335 0.89600003 4279835219
0.38779715 0.26051143 0.89100003 4280293715
0.38862002 0.25992668 0.88900006 4280817750
0.38943523 0.25934193 0.88700002 4281405786
0.39112476 0.25934193 0.88700002 4282059386
0.39148575 0.25846478 0.88400006 4282599322
0.3913905 0.25729525 0.88000005 4283123614
0.39217335 0.2567105 0.87800002 4283319458
0.39384574 0.2567105 0.87800002 4283515297
0.39416668 0.25583336 0.87500006 4283977633
0.39583334 0.25583336 0.87500006 4284440475
0.34592 0.21987049 0.75200003 4288471950
0.34319526 0.21723905 0.74300003 4288863120
0.3441467 0.21694668 0.74200004 4289188749
0.34462857 0.21636191 0.74000001 4289583498
0.34463528 0.21548478 0.73700005 4290044060
0.34556955 0.21519241 0.73600006 4291619502
0.34697145 0.21519241 0.73600006 4293260459
0.34742665 0.21460763 0.73400003 4292203944
0.34787431 0.21402287 0.73200005 4291141297
0.34783715 0.21314572 0.72900003 4287975099
0.34922573 0.21314572 0.72900003 4284895170
0.35061431 0.21314572 0.72900003 4285359561
0.35200289 0.21314572 0.72900003 4285816783
0.3529067 0.21285334 0.72800004 4285816278
0.35332 0.21226858 0.72600001 4285880526
0.35470286 0.21226858 0.72600001 4285552326
0.35559523 0.2119762 0.72500002 4285158592
0.35599145 0.21139143 0.72300005 4284961467
0.35736859 0.21139143 0.72300005 4284698804
0.35874572 0.21139143 0.72300005 4284502446
0.35962477 0.21109907 0.72200006 4284240806
0.361 0.21109907 0.72200006 4283976607
0.36237526 0.21109907 0.72200006 4283647133
0.36274287 0.21051429 0.72000003 4283253148
0.3636086 0.21022192 0.71900004 4282858372
0.3649781 0.21022192 0.71900004 4282520940
0.36532858 0.20963715 0.71700001 4282143862
0.36771718 0.21022192 0.71900004 4285309057
0.36806002 0.20963715 0.71700001 4288457838
0.36942571 0.20963715 0.71700001 4287402843
0.37079141 0.20963715 0.71700001 4286342250
0.37163809 0.20934477 0.71600002 4284033657
0.3730019 0.20934477 0.71600002 4281805695
-0.55571902 0.28104284 0.95500004 4282596430
-0.55273998 0.28045431 0.95300007 4283250770
-0.54919052 0.27957144 0.95000005 4283053399
-0.54738092 0.27957144 0.95000005 4282923350
-0.54557145 0.27957144 0.95000005 4282790741
-0.54376191 0.27957144 0.95000005 4282725969
-0.54081148 0.27898288 0.94800007 4282594126
-0.53900576 0.27898288 0.94800007 4282462786
-0.53720003 0.27898288 0.94800007 4282396982
-0.53652382 0.27957144 0.95000005 4282397250
-0.53358865 0.27898288 0.94800007 4281938767
-0.53178293 0.27898288 0.94800007 4281546572
-0.52662289 0.27721715 0.94200003 4282000458
-0.52482855 0.27721715 0.94200003 4282464075
-0.52303433 0.27721715 0.94200003 4282593612
-0.52124 0.27721715 0.94200003 4282726211
-0.51944572 0.27721715 0.94200003 4282264891
-0.51655239 0.27662858 0.94000006 4281871417
-0.51476198 0.27662858 0.94000006 4282199096
-0.51297146 0.27662858 0.94000006 4282592571
-0.5122686 0.27721715 0.94200003 4282593086
-0.51047432 0.27721715 0.94200003 4282658625
-0.51029998 0.27810001 0.94500005 4282527557
-0.50688577 0.27721715 0.94200003 4282396737
-0.50670004 0.27810001 0.94500005 4282921278
-0.50650293 0.27898288 0.94800007 4283446075
-0.50309998 0.27810001 0.94500005 4282398009
-0.50289142 0.27898288 0.94800007 4281414460
-0.5010857 0.27898288 0.94800007 4282396991
-0.50033337 0.27957144 0.95000005 4283380029
-0.4985238 0.27957144 0.95000005 4282854972
-0.49566859 0.27898288 0.94800007 4282330175
-0.49386287 0.27898288 0.94800007 4281870914
-0.49205717 0.27898288 0.94800007 4281477948
-0.49025145 0.27898288 0.94800007 4281805879
-0.48844576 0.27898288 0.94800007 4282199349
-0.48664004 0.27898288 0.94800007 4282068787
-0.48176572 0.27721715 0.94200003 4282002735
-0.48150003 0.27810001 0.94500005 4282068011
-0.48122287 0.27898288 0.94800007 4282198839
-0.4779 0.27810001 0.94500005 4282067779
-0.47861907 0.27957144 0.95000005 4281936445
-0.47680953 0.27957144 0.95000005 4282001976
-0.47650003 0.28045431 0.95300007 4282133306
-0.4746848 0.28045431 0.95300007 4282723388
-0.47286955 0.28045431 0.95300007 4283313470
-0.47204286 0.28104284 0.95500004 4282985793
-0.47022381 0.28104284 0.95500004 4282657601
-0.46742386 0.28045431 0.95300007 4282657602
-0.46658573 0.28104284 0.95500004 4282723137
-0.46476668 0.28104284 0.95500004 4282657856
-0.46294764 0.28104284 0.95500004 4282656574
-0.46112859 0.28104284 0.95500004 4282590524
-0.46075243 0.28192574 0.95800006 4282525756
-0.45892763 0.28192574 0.95800006 4282853948
-0.45853427 0.28280857 0.96100003 4283182140
-0.45670381 0.28280857 0.96100003 4282658875
-0.45582002 0.28339717 0.96300006 4282200120
-0.45398575 0.28339717 0.96300006 4282265910
-0.45215145 0.28339717 0.96300006 4282330166
-0.45031717 0.28339717 0.96300006 4282002231
-0.44755143 0.28280857 0.96100003 4281674810
-0.44943145 0.28516287 0.96900004 4281282109
-0.44897148 0.28604573 0.97200006 4280954939
-0.44712004 0.28604573 0.97200006 4282001721
-0.4452686 0.28604573 0.97200006 4283051322
-0.44341719 0.28604573 0.97200006 4282723132
-0.44247431 0.2866343 0.97400004 4282396222
-0.44197619 0.28751713 0.97700006 4282462784
-0.44011527 0.28751713 0.97700006 4282593855
-0.43960002 0.28839999 0.98000002 4282725183
-0.43773332 0.28839999 0.98000002 4282921536
-0.43720096 0.28928286 0.98300004 4283117889
-0.4353286 0.28928286 0.98300004 4283314235
-0.43345621 0.28928286 0.98300004 4283052086
-0.43158382 0.28928286 0.98300004 4282855740
-0.43058574 0.28987145 0.98500007 4282592322
-0.43001527 0.29075432 0.98800004 4282395714
-0.42943335 0.29163715 0.99100006 4282199362
-0.42754576 0.29163715 0.99100006 4282068028
-0.42565814 0.29163715 0.99100006 4281936951
-0.42505333 0.29251999 0.99400002 4281871409
-0.42443717 0.29340285 0.99700004 4281675051
-0.4225381 0.29340285 0.99700004 4281543214
-0.42063907 0.29340285 0.99700004 4281739569
-0.19541334 0.26368001 0.89600003 4278387069
-0.19370668 0.26368001 0.89600003 4286633722
-0.19157143 0.26309142 0.89400005 4294901500
-0.18986858 0.26309142 0.89400005 4294901502
-0.18816572 0.26309142 0.89400005 4294901502
-0.18583715 0.26220858 0.89100003 4293525246
-0.18372667 0.26162001 0.88900006 4292179925
-0.18203335 0.26162001 0.88900006 4288217517
-0.18034001 0.26162001 0.88900006 4284325293
-0.17864667 0.26162001 0.88900006 4282743212
-0.17695335 0.26162001 0.88900006 4281148577
-0.17486572 0.26103142 0.88700002 4281739670
-0.17259049 0.26014858 0.88400006 4282327441
-0.17090668 0.26014858 0.88400006 4280294027
-0.16922286 0.26014858 0.88400006 4278258842
-0.16753906 0.26014858 0.88400006 4283777706
-0.16585524 0.26014858 0.88400006 4289306322
-0.16472858 0.26103142 0.88700002 4292077818
-0.16303906 0.26103142 0.88700002 4294895604
-0.16134953 0.26103142 0.88700002 4294630127
-0.15966 0.26103142 0.88700002 4294367211
-0.15832667 0.26162001 0.88900006 4294235366
-0.15663335 0.26162001 0.88900006 4294169317
-0.15528858 0.26220858 0.89100003 4294234596
-0.15359144 0.26220858 0.89100003 4294301153
-0.15189429 0.26220858 0.89100003 4294368223
-0.15019715 0.26220858 0.89100003 4294498531
-0.1485 0.26220858 0.89100003 4294631143
-0.14729714 0.26309142 0.89400005 4294762470
-0.1455943 0.26309142 0.89400005 4294500581
-0.14389144 0.26309142 0.89400005 4294302436
-0.14218858 0.26309142 0.89400005 4294301411
-0.14080001 0.26368001 0.89600003 4294303205
-0.13909334 0.26368001 0.89600003 4294170088
-0.13769333 0.26426861 0.89800006 4294038504
-0.13598287 0.26426861 0.89800006 4294431209
-0.13427238 0.26426861 0.89800006 4294827713
-0.13300475 0.26515141 0.90100002 4289040026
-0.13128857 0.26515141 0.90100002 4283302221
0.09944953 0.28192574 0.95800006 4285100997
0.10095715 0.28104284 0.95500004 4291810016
0.10202286 0.27898288 0.94800007 4293320956
0.1035 0.27810001 0.94500005 4294900730
0.10496572 0.27721715 0.94200003 4294768377
0.10619334 0.27574572 0.93700004 4294703611
0.10774763 0.27515715 0.93500006 4294770173
0.10917714 0.27427429 0.93200004 4294901244
0.11035715 0.27280289 0.92700005 4294900220
0.11188096 0.27221429 0.92500007 4294901501
0.11327429 0.27133143 0.92200005 4294901502
0.11478096 0.27074286 0.92000002 4294901502
0.11589999 0.26927143 0.91500002 4294901502
0.11764286 0.26927143 0.91500002 4294901502
0.11912477 0.26868287 0.91300005 4294901502
0.12046667 0.2678 0.91000003 4294901502
0.12193143 0.26721144 0.90800005 4294901502
0.12325238 0.26632857 0.90500003 4294901502
0.12470001 0.26574001 0.90300006 4294901502
0.12614 0.26515141 0.90100002 4294901502
0.12743048 0.26426861 0.89800006 4294901502
0.12914096 0.26426861 0.89800006 4294901502
0.13056 0.26368001 0.89600003 4294901502
0.13197143 0.26309142 0.89400005 4294901500
0.13367428 0.26309142 0.89400005 4294703610
0.13492286 0.26220858 0.89100003 4294572793
0.13631335 0.26162001 0.88900006 4294507513
0.13800667 0.26162001 0.88900006 4294440696
0.13938573 0.26103142 0.88700002 4294566904
0.1405981 0.26014858 0.88400006 4294770171
0.14196 0.25955999 0.88200003 4294835966
0.1433143 0.25897145 0.88000005 4294901499
0.14499047 0.25897145 0.88000005 4294769913
0.14633334 0.25838286 0.87800002 4294704377
0.14800572 0.25838286 0.87800002 4294769914
0.1496781 0.25838286 0.87800002 4294834937
0.15083335 0.25750002 0.87500006 4294637817
0.15215144 0.25691146 0.87300003 4294440439
0.15381429 0.25691146 0.87300003 4294237173
0.15512097 0.25632286 0.87100005 4294111991
0.15678 0.25632286 0.87100005 4294507258
0.15807524 0.25573426 0.86900002 4294901242
0.15973048 0.25573426 0.86900002 4294702841
0.16138572 0.25573426 0.86900002 4294505976
0.16304097 0.25573426 0.86900002 4294440182
0.16431715 0.25514573 0.86700004 4294373622
0.16596858 0.25514573 0.86700004 4294373622
0.16762 0.25514573 0.86700004 4294374645
0.16927144 0.25514573 0.86700004 4294371572
0.17052858 0.25455716 0.86500007 4294437876
0.17217621 0.25455716 0.86500007 4294373109
0.17382382 0.25455716 0.86500007 4294306292
0.17547144 0.25455716 0.86500007 4294306804
0.17711906 0.25455716 0.86500007 4294306547
0.17876668 0.25455716 0.86500007 4294304499
0.18083145 0.25514573 0.86700004 4294304243
0.18206191 0.25455716 0.86500007 4294303988
0.18370955 0.25455716 0.86500007 4294305012
0.1847143 0.2536743 0.86200005 4294305268
0.18549143 0.25249714 0.85800004 4294304499
0.18712573 0.25249714 0.85800004 4294238193
0.18876001 0.25249714 0.85800004 4294238194
0.1903943 0.25249714 0.85800004 4294239475
0.19202857 0.25249714 0.85800004 4294304755
0.19366287 0.25249714 0.85800004 4294235635
0.19529715 0.25249714 0.85800004 4294169842
0.19693144 0.25249714 0.85800004 4294169586
0.19856572 0.25249714 0.85800004 4294170099
0.20020001 0.25249714 0.85800004 4293777652
0.20183429 0.25249714 0.85800004 4293384179
0.2029943 0.2519086 0.85600007 4293447667
0.20462477 0.2519086 0.85600007 4293512688
0.20625526 0.2519086 0.85600007 4293381101
0.20788573 0.2519086 0.85600007 4293315052
0.20951621 0.2519086 0.85600007 4293183723
0.21065333 0.25132 0.85400003 4293117930
0.21228001 0.25132 0.85400003 4293052137
0.21390668 0.25132 0.85400003 4292985828
0.21553335 0.25132 0.85400003 4292788704
0.21716 0.25132 0.85400003 4292592092
0.21878667 0.25132 0.85400003 4292589017
0.22041334 0.25132 0.85400003 4292587996
0.22204001 0.25132 0.85400003 4292652767
0.22366667 0.25132 0.85400003 4292784093
0.22529334 0.25132 0.85400003 4292063706
0.22692001 0.25132 0.85400003 4291408085
0.22854668 0.25132 0.85400003 4291537360
0.23017333 0.25132 0.85400003 4291666637
0.2318 0.25132 0.85400003 4291404745
0.23342668 0.25132 0.85400003 4291206854
0.23505335 0.25132 0.85400003 4291008195
0.23668 0.25132 0.85400003 4290813376
0.23830667 0.25132 0.85400003 4290551229
0.23993334 0.25132 0.85400003 4290287803
0.24156001 0.25132 0.85400003 4289893048
0.24318667 0.25132 0.85400003 4289499318
0.24538668 0.2519086 0.85600007 4289695412
0.24701715 0.2519086 0.85600007 4289891505
0.24864763 0.2519086 0.85600007 4289759406
0.25027812 0.2519086 0.85600007 4289627823
0.2519086 0.2519086 0.85600007 4289561776
0.25353909 0.2519086 0.85600007 4289561256
0.25516954 0.2519086 0.85600007 4289429921
0.25740001 0.25249714 0.85800004 4289298594
0.2596381 0.2530857 0.86000001 4289298339
0.26127619 0.2530857 0.86000001 4289297826
0.26291427 0.2530857 0.86000001 4289036961
0.26516765 0.2536743 0.86200005 4288774560
0.26680955 0.2536743 0.86200005 4288381087
0.26938573 0.25455716 0.86500007 4288052386
0.27103335 0.25455716 0.86500007 4288314790
0.27268097 0.25455716 0.86500007 4288576929
0.27432859 0.25455716 0.86500007 4288380317
0.27597621 0.25455716 0.86500007 4288182941
0.27762383 0.25455716 0.86500007 4287986078
0.27927145 0.25455716 0.86500007 4287854753
0.28091908 0.25455716 0.86500007 4287786660
0.28322002 0.25514573 0.86700004 4287722654
0.28618574 0.25632286 0.87100005 4287591832
0.28784478 0.25632286 0.87100005 4287526033
0.29016858 0.25691146 0.87300003 4287328395
0.29183143 0.25691146 0.87300003 4287131282
0.29282191 0.25632286 0.87100005 4287261849
0.29515713 0.25691146 0.87300003 4287392406
0.29750001 0.25750002 0.87500006 4287130004
0.30019239 0.25838286 0.87800002 4286867861
0.3025524 0.25897145 0.88000005 4286736790
0.3042286 0.25897145 0.88000005 4286604945
0.30590478 0.25897145 0.88000005 4286473100
0.30827999 0.25955999 0.88200003 4286341767
0.31066287 0.26014858 0.88400006 4286276226
0.31340665 0.26103142 0.88700002 4286275710
0.31580669 0.26162001 0.88900006 4285948027
0.31750003 0.26162001 0.88900006 4285685625
0.31991145 0.26220858 0.89100003 4285422711
0.32269144 0.26309142 0.89400005 4285224559
0.32584575 0.26426861 0.89800006 4285224295
0.32755619 0.26426861 0.89800006 4285223010
0.37121147 0.28604573 0.97200006 4281868825
0.37306288 0.28604573 0.97200006 4282259993
0.37375715 0.28516287 0.96900004 4282455321
0.37444001 0.28428 0.96600002 4282651160
0.3743324 0.28280857 0.96100003 4282585368
0.37498862 0.28192574 0.95800006 4282585628
0.37681335 0.28192574 0.95800006 4282913567
0.3774524 0.28104284 0.95500004 4283240478
0.37847716 0.28045431 0.95300007 4283371294
0.37829718 0.27898288 0.94800007 4283503126
0.38010287 0.27898288 0.94800007 4283045134
0.38070002 0.27810001 0.94500005 4282586392
0.37926191 0.27574572 0.93700004 4283110947
0.38104668 0.27574572 0.93700004 4283635752
0.3820143 0.27515715 0.93500006 4283111982
0.38256383 0.27427429 0.93200004 4282656570
0.38351431 0.27368572 0.93000007 4283575622
0.38404289 0.27280289 0.92700005 4284494142
0.38580859 0.27280289 0.92700005 4284757559
0.38673812 0.27221429 0.92500007 4285020470
0.38430002 0.26927143 0.91500002 4285414453
0.38519907 0.26868287 0.91300005 4285809726
0.38566667 0.2678 0.91000003 4284501064
0.38654861 0.26721144 0.90800005 4283183174
0.3882781 0.26721144 0.90800005 4281734213
0.38786003 0.26574001 0.90300006 4280357963
0.38871714 0.26515141 0.90100002 4280554833
0.38913336 0.26426861 0.89800006 4280752720
0.38910288 0.26309142 0.89400005 4280749647
0.3894943 0.26220858 0.89100003 4280748882
0.39031336 0.26162001 0.88900006 4281403733
0.39112476 0.26103142 0.88700002 4282126458
0.39148575 0.26014858 0.88400006 4282799264
0.3913905 0.25897145 0.88000005 4283451555
0.39083335 0.25750002 0.87500006 4283648167
0.39250001 0.25750002 0.87500006 4283846055
0.39416668 0.25750002 0.87500006 4283912872
0.39492857 0.25691146 0.87300003 4284043168
0.39568287 0.25632286 0.87100005 4282403992
0.39734191 0.25632286 0.87100005 4280832152
0.34136385 0.21659429 0.73600006 4287669901
0.34276572 0.21659429 0.73600006 4288327819
0.34416765 0.21659429 0.73600006 4289051548
0.34556955 0.21659429 0.73600006 4291034285
0.3460286 0.21600573 0.73400003 4293059235
0.34742665 0.21600573 0.73400003 4292069786
0.34787431 0.21541716 0.73200005 4291072940
0.34879145 0.21512285 0.73100001 4288037310
0.35018378 0.21512285 0.73100001 4285094340
0.35157618 0.21512285 0.73100001 4285491401
0.35200289 0.2145343 0.72900003 4285882829
0.35339144 0.2145343 0.72900003 4286012113
0.35332 0.21365142 0.72600001 4286142668
0.35470286 0.21365142 0.72600001 4285618118
0.35559523 0.21335715 0.72500002 4285158852
0.35599145 0.21276858 0.72300005 4284896449
0.35736859 0.21276858 0.72300005 4284634038
0.35874572 0.21276858 0.72300005 4284306091
0.35962477 0.2124743 0.72200006 4283977873
0.361 0.2124743 0.72200006 4283708278
0.36137143 0.21188572 0.72000003 4283451269
0.36274287 0.21188572 0.72000003 4282926484
0.3636086 0.21159144 0.71900004 4282400899
0.3649781 0.21159144 0.71900004 4282193267
0.36532858 0.21100286 0.71700001 4282078834
0.36771718 0.21159144 0.71900004 4285112433
0.36806002 0.21100286 0.71700001 4288195173
0.36942571 0.21100286 0.71700001 4287997273
0.37027431 0.21070857 0.71600002 4287784292
0.37163809 0.21070857 0.71600002 4284688751
0.3730019 0.21070857 0.71600002 4281608055
-0.55280954 0.28138095 0.95000005 4284827483
-0.55100006 0.28138095 0.95000005 4285220190
-0.54630005 0.27990001 0.94500005 4285087585
-0.54622859 0.2807886 0.94800007 4284954974
-0.54442286 0.2807886 0.94800007 4284758364
-0.5426172 0.2807886 0.94800007 4284627544
-0.53910005 0.27990001 0.94500005 4284498005
-0.53730005 0.27990001 0.94500005 4284368717
-0.53720003 0.2807886 0.94800007 4284301638
-0.53652382 0.28138095 0.95000005 4284234828
-0.53471428 0.28138095 0.95000005 4284038226
-0.53178293 0.2807886 0.94800007 4283841613
-0.52830005 0.27990001 0.94500005 4283971912
-0.52649999 0.27990001 0.94500005 4284167756
-0.52303433 0.27901143 0.94200003 4284364368
-0.52124 0.27901143 0.94200003 4284495426
-0.52110004 0.27990001 0.94500005 4283969589
-0.51765144 0.27901143 0.94200003 4283443765
-0.51585716 0.27901143 0.94200003 4283379254
-0.51297146 0.27841908 0.94000006 4283314744
-0.5122686 0.27901143 0.94200003 4283248955
-0.51047432 0.27901143 0.94200003 4283183423
-0.50867999 0.27901143 0.94200003 4282528068
-0.50688577 0.27901143 0.94200003 4281807168
-0.50670004 0.27990001 0.94500005 4282462524
-0.50490004 0.27990001 0.94500005 4283052601
-0.50309998 0.27990001 0.94500005 4282462774
-0.49970859 0.27901143 0.94200003 4281807673
-0.49791428 0.27901143 0.94200003 4282396988
-0.50033337 0.28138095 0.95000005 4282986811
-0.4985238 0.28138095 0.95000005 4282658106
-0.49671432 0.28138095 0.95000005 4282330943
-0.49490479 0.28138095 0.95000005 4282003013
-0.49205717 0.2807886 0.94800007 4281740605
-0.49025145 0.2807886 0.94800007 4281937206
-0.4894762 0.28138095 0.95000005 4282068530
-0.48664004 0.2807886 0.94800007 4281937454
-0.48483431 0.2807886 0.94800007 4281872933
-0.48302862 0.2807886 0.94800007 4282133789
-0.48223811 0.28138095 0.95000005 4282461740
-0.4779 0.27990001 0.94500005 4282199099
-0.47861907 0.28138095 0.95000005 4281936189
-0.47680953 0.28138095 0.95000005 4281870655
-0.47650003 0.28226954 0.95300007 4281739839
-0.4746848 0.28226954 0.95300007 4282330175
-0.47286955 0.28226954 0.95300007 4282854721
-0.47204286 0.28286192 0.95500004 4282592323
-0.47022381 0.28286192 0.95500004 4282330181
-0.46742386 0.28226954 0.95300007 4282592071
-0.46658573 0.28286192 0.95500004 4282853956
-0.46476668 0.28286192 0.95500004 4282722882
-0.46294764 0.28286192 0.95500004 4282656320
-0.46112859 0.28286192 0.95500004 4282525503
-0.46075243 0.2837505 0.95800006 4282461246
-0.45892763 0.2837505 0.95800006 4282592318
-0.45853427 0.28463906 0.96100003 4282723903
-0.4576543 0.28523144 0.96300006 4282396481
-0.45582002 0.28523144 0.96300006 4282003006
-0.45398575 0.28523144 0.96300006 4282330171
-0.45215145 0.28523144 0.96300006 4282592057
-0.45172 0.28612 0.96600002 4282133304
-0.4484829 0.28523144 0.96300006 4281741369
-0.44804001 0.28612 0.96600002 4281479227
-0.44758573 0.28700858 0.96900004 4281217337
-0.44574001 0.28700858 0.96900004 4281872183
-0.4452686 0.28789717 0.97200006 4282592824
-0.44341719 0.28789717 0.97200006 4282461754
-0.44156575 0.28789717 0.97200006 4282332733
-0.44061905 0.28848952 0.97400004 4282397249
-0.44011527 0.28937811 0.97700006 4282462783
-0.4382543 0.28937811 0.97700006 4282659389
-0.43773332 0.29026666 0.98000002 4282921534
-0.43586665 0.29026666 0.98000002 4282922047
-0.4353286 0.29115525 0.98300004 4282988601
-0.43345621 0.29115525 0.98300004 4282855731
-0.43158382 0.29115525 0.98300004 4282724668
-0.42971143 0.29115525 0.98300004 4282527302
-0.42870954 0.29174763 0.98500007 4282396227
-0.42813334 0.29263619 0.98800004 4282264897
-0.42754576 0.29352477 0.99100006 4282198845
-0.42565814 0.29352477 0.99100006 4282002234
-0.42377049 0.29352477 0.99100006 4281805874
-0.42315999 0.29441333 0.99400002 4281478442
-0.42126667 0.29441333 0.99400002 4281215535
-0.42063907 0.29530191 0.99700004 4281674548
-0.1932743 0.26479432 0.89400005 4286633470
-0.19157143 0.26479432 0.89400005 4294901502
-0.18986858 0.26479432 0.89400005 4294901502
-0.18816572 0.26479432 0.89400005 4294901502
-0.18583715 0.26390573 0.89100003 4293721854
-0.18414 0.26390573 0.89100003 4292575186
-0.18203335 0.26331332 0.88900006 4287693223
-0.18034001 0.26331332 0.88900006 4282950835
-0.17864667 0.26331332 0.88900006 4283141312
-0.17695335 0.26331332 0.88900006 4283310760
-0.17486572 0.26272094 0.88700002 4282523793
-0.17259049 0.26183239 0.88400006 4281744020
-0.17090668 0.26183239 0.88400006 4280887960
-0.16922286 0.26183239 0.88400006 4280031103
-0.16753906 0.26183239 0.88400006 4281870951
-0.16585524 0.26183239 0.88400006 4283781550
-0.16417143 0.26183239 0.88400006 4287995382
-0.16248763 0.26183239 0.88400006 4292274932
-0.16134953 0.26272094 0.88700002 4293454067
-0.15966 0.26272094 0.88700002 4294633452
-0.15797047 0.26272094 0.88700002 4294498789
-0.15663335 0.26331332 0.88900006 4294366690
-0.15528858 0.26390573 0.89100003 4294301663
-0.15359144 0.26390573 0.89100003 4294302176
-0.15189429 0.26390573 0.89100003 4294236642
-0.15019715 0.26390573 0.89100003 4294171112
-0.1485 0.26390573 0.89100003 4294368238
-0.14729714 0.26479432 0.89400005 4294631658
-0.1455943 0.26479432 0.89400005 4293975014
-0.14389144 0.26479432 0.89400005 4293318629
-0.14218858 0.26479432 0.89400005 4293385956
-0.14080001 0.26538667 0.89600003 4293453287
-0.13909334 0.26538667 0.89600003 4293516267
-0.13769333 0.26597905 0.89800006 4293579500
-0.13598287 0.26597905 0.89800006 4294104301
-0.13427238 0.26597905 0.89800006 4294696900
-0.13300475 0.26686761 0.90100002 4288841372
-0.13128857 0.26686761 0.90100002 4282974542
-0.12957239 0.26686761 0.90100002 4281073921
0.10042857 0.28138095 0.95000005 4291677149
0.1017 0.27990001 0.94500005 4293256188
0.1035 0.27990001 0.94500005 4294900986
0.10496572 0.27901143 0.94200003 4294702841
0.10619334 0.27753049 0.93700004 4294571514
0.10774763 0.27693811 0.93500006 4294704636
0.10917714 0.27604955 0.93200004 4294901243
0.11035715 0.27456859 0.92700005 4294901243
0.11188096 0.27397621 0.92500007 4294901500
0.11327429 0.27308762 0.92200005 4294901502
0.11478096 0.27249524 0.92000002 4294901502
0.11589999 0.27101427 0.91500002 4294901502
0.11764286 0.27101427 0.91500002 4294901502
0.11912477 0.27042192 0.91300005 4294901502
0.12046667 0.26953334 0.91000003 4294901502
0.12193143 0.26894099 0.90800005 4294901502
0.12325238 0.2680524 0.90500003 4294901502
0.12470001 0.26746002 0.90300006 4294901502
0.12614 0.26686761 0.90100002 4294901502
0.12743048 0.26597905 0.89800006 4294901502
0.12914096 0.26597905 0.89800006 4294901502
0.13056 0.26538667 0.89600003 4294901502
0.13197143 0.26479432 0.89400005 4294901500
0.13367428 0.26479432 0.89400005 4294638075
0.13492286 0.26390573 0.89100003 4294441210
0.13631335 0.26331332 0.88900006 4294506234
0.13769619 0.26272094 0.88700002 4294636793
0.13938573 0.26272094 0.88700002 4294703608
0.14028001 0.26124001 0.88200003 4294835963
0.14196 0.26124001 0.88200003 4294835966
0.1433143 0.26064762 0.88000005 4294901500
0.14499047 0.26064762 0.88000005 4294769659
0.14633334 0.26005524 0.87800002 4294638330
0.14750001 0.25916669 0.87500006 4294637817
0.1496781 0.26005524 0.87800002 4294571768
0.15083335 0.25916669 0.87500006 4294571768
0.15215144 0.25857431 0.87300003 4294506486
0.15381429 0.25857431 0.87300003 4294374389
0.15512097 0.25798193 0.87100005 4294242295
0.15714 0.25857431 0.87300003 4294440698
0.15807524 0.25738952 0.86900002 4294639353
0.15973048 0.25738952 0.86900002 4294505464
0.16101429 0.25679716 0.86700004 4294374135
0.16304097 0.25738952 0.86900002 4294307830
0.16431715 0.25679716 0.86700004 4294241782
0.16596858 0.25679716 0.86700004 4294307318
0.16762 0.25679716 0.86700004 4294374389
0.16927144 0.25679716 0.86700004 4294374132
0.17092286 0.25679716 0.86700004 4294439412
0.17257428 0.25679716 0.86700004 4294373109
0.17382382 0.25620478 0.86500007 4294306549
0.17587714 0.25679716 0.86700004 4294306805
0.17711906 0.25620478 0.86500007 4294372596
0.17918001 0.25679716 0.86700004 4294303987
0.18083145 0.25679716 0.86700004 4294239987
0.18206191 0.25620478 0.86500007 4294238452
0.18307239 0.2553162 0.86200005 4294240757
0.18428572 0.25472379 0.86000001 4294239478
0.18549143 0.25413144 0.85800004 4294305268
0.18712573 0.25413144 0.85800004 4294237426
0.18876001 0.25413144 0.85800004 4294236914
0.1903943 0.25413144 0.85800004 4294238451
0.19202857 0.25413144 0.85800004 4294305011
0.19366287 0.25413144 0.85800004 4294236147
0.19529715 0.25413144 0.85800004 4294171379
0.19693144 0.25413144 0.85800004 4294105331
0.19856572 0.25413144 0.85800004 4294104820
0.20020001 0.25413144 0.85800004 4293842677
0.20183429 0.25413144 0.85800004 4293580788
0.2029943 0.25353909 0.85600007 4293578227
0.20462477 0.25353909 0.85600007 4293512433
0.20625526 0.25353909 0.85600007 4293445871
0.20788573 0.25353909 0.85600007 4293314029
0.20951621 0.25353909 0.85600007 4293248748
0.21065333 0.25294667 0.85400003 4293117161
0.21228001 0.25294667 0.85400003 4293182182
0.21390668 0.25294667 0.85400003 4293245668
0.21553335 0.25294667 0.85400003 4292852962
0.21716 0.25294667 0.85400003 4292526048
0.21878667 0.25294667 0.85400003 4292589791
0.22041334 0.25294667 0.85400003 4292651998
0.22204001 0.25294667 0.85400003 4292391134
0.22366667 0.25294667 0.85400003 4292129246
0.22529334 0.25294667 0.85400003 4291867102
0.22745144 0.25353909 0.85600007 4291538647
0.22854668 0.25294667 0.85400003 4291601616
0.2307124 0.25353909 0.85600007 4291666381
0.2318 0.25294667 0.85400003 4291404747
0.23342668 0.25294667 0.85400003 4291206087
0.23505335 0.25294667 0.85400003 4291009732
0.23668 0.25294667 0.85400003 4290813632
0.23830667 0.25294667 0.85400003 4290551229
0.23993334 0.25294667 0.85400003 4290354619
0.24156001 0.25294667 0.85400003 4290089658
0.24318667 0.25294667 0.85400003 4289825207
0.24538668 0.25353909 0.85600007 4289826484
0.24701715 0.25353909 0.85600007 4289892273
0.24864763 0.25353909 0.85600007 4289759662
0.25027812 0.25353909 0.85600007 4289694124
0.2519086 0.25353909 0.85600007 4289562539
0.25353909 0.25353909 0.85600007 4289496489
0.25516954 0.25353909 0.85600007 4289300136
0.25740001 0.25413144 0.85800004 4289169574
0.2596381 0.25472379 0.86000001 4288773796
0.26127619 0.25472379 0.86000001 4288446114
0.26291427 0.25472379 0.86000001 4288512416
0.26516765 0.2553162 0.86200005 4288578207
0.26680955 0.2553162 0.86200005 4288446622
0.26845145 0.2553162 0.86200005 4288248223
0.27103335 0.25620478 0.86500007 4288445345
0.27268097 0.25620478 0.86500007 4288643488
0.27432859 0.25620478 0.86500007 4288445344
0.27597621 0.25620478 0.86500007 4288248736
0.27762383 0.25620478 0.86500007 4288117664
0.27927145 0.25620478 0.86500007 4287986596
0.28091908 0.25620478 0.86500007 4287789480
0.28387335 0.25738952 0.86900002 4287657886
0.28552857 0.25738952 0.86900002 4287657620
0.28784478 0.25798193 0.87100005 4287592071
0.29016858 0.25857431 0.87300003 4286933627
0.29183143 0.25857431 0.87300003 4286275466
0.29282191 0.25798193 0.87100005 4286737561
0.29515713 0.25857431 0.87300003 4287195800
0.29750001 0.25916669 0.87500006 4287064471
0.30019239 0.26005524 0.87800002 4286933146
0.3025524 0.26064762 0.88000005 4286801821
0.3042286 0.26064762 0.88000005 4286670741
0.30590478 0.26064762 0.88000005 4286538893
0.30827999 0.26124001 0.88200003 4286407559
0.31171715 0.26272094 0.88700002 4286537857
0.31340665 0.26272094 0.88700002 4286668414
0.31580669 0.26331332 0.88900006 4286209916
0.31750003 0.26331332 0.88900006 4285816954
0.3209886 0.26479432 0.89400005 4285487225
0.32341334 0.26538667 0.89600003 4285224816
0.32584575 0.26597905 0.89800006 4285224296
0.32755619 0.26597905 0.89800006 4285223522
0.37121147 0.28789717 0.97200006 4281670168
0.37306288 0.28789717 0.97200006 4282062872
0.37375715 0.28700858 0.96900004 4282390297
0.37560287 0.28700858 0.96900004 4282781725
0.3743324 0.28463906 0.96100003 4282388257
0.37616286 0.28463906 0.96100003 4282059553
0.37681335 0.2837505 0.95800006 4282584866
0.3774524 0.28286192 0.95500004 4283109663
0.37847716 0.28226954 0.95300007 4283307805
0.37829718 0.2807886 0.94800007 4283571736
0.37890002 0.27990001 0.94500005 4283571475
0.38070002 0.27990001 0.94500005 4283505692
0.37926191 0.27753049 0.93700004 4283636774
0.38104668 0.27753049 0.93700004 4283833384
0.3820143 0.27693811 0.93500006 4283572523
0.38256383 0.27604955 0.93200004 4283378994
0.38351431 0.27545714 0.93000007 4283903290
0.38404289 0.27456859 0.92700005 4284493113
0.38580859 0.27456859 0.92700005 4284362808
0.38673812 0.27397621 0.92500007 4284298041
0.38430002 0.27101427 0.91500002 4284821818
0.38604286 0.27101427 0.91500002 4285419592
0.38566667 0.26953334 0.91000003 4283778902
0.38654861 0.26894099 0.90800005 4282138186
0.3882781 0.26894099 0.90800005 4281342526
0.38786003 0.26746002 0.90300006 4280621126
0.38871714 0.26686761 0.90100002 4280817999
0.38913336 0.26597905 0.89800006 4281014861
0.38997334 0.26538667 0.89600003 4280489548
0.39080575 0.26479432 0.89400005 4279964238
0.39031336 0.26331332 0.88900006 4281013329
0.39112476 0.26272094 0.88700002 4282062459
0.39148575 0.26183239 0.88400006 4282731174
0.3913905 0.26064762 0.88000005 4283386537
0.39217335 0.26005524 0.87800002 4283583405
0.39250001 0.25916669 0.87500006 4283846062
0.39416668 0.25916669 0.87500006 4283978415
0.39492857 0.25857431 0.87300003 4284110245
0.39477429 0.25738952 0.86900002 4283189148
0.39642954 0.25738952 0.86900002 4282269600
0.34136385 0.21799621 0.73600006 4285624718
0.34276572 0.21799621 0.73600006 4285891725
0.34416765 0.21799621 0.73600006 4286224285
0.34556955 0.21799621 0.73600006 4287340973
0.3460286 0.21740381 0.73400003 4288392092
0.34742665 0.21740381 0.73400003 4287863436
0.34787431 0.21681145 0.73200005 4287334823
0.34783715 0.21592286 0.72900003 4285941698
0.34922573 0.21592286 0.72900003 4284638150
0.35061431 0.21592286 0.72900003 4285032906
0.35200289 0.21592286 0.72900003 4285493451
0.35339144 0.21592286 0.72900003 4285618637
0.35332 0.21503429 0.72600001 4285752522
0.35470286 0.21503429 0.72600001 4285490119
0.35559523 0.2147381 0.72500002 4285293511
0.35599145 0.21414572 0.72300005 4285028040
0.35736859 0.21414572 0.72300005 4284765880
0.35824955 0.21384954 0.72200006 4284436649
0.35962477 0.21384954 0.72200006 4284108155
0.361 0.21384954 0.72200006 4284173134
0.36137143 0.21325715 0.72000003 4284303981
0.36274287 0.21325715 0.72000003 4283778956
0.3636086 0.21296096 0.71900004 4283319683
0.3649781 0.21296096 0.71900004 4282666619
0.36634761 0.21296096 0.71900004 4282079342
0.36771718 0.21296096 0.71900004 4285178210
0.36806002 0.21236856 0.71700001 4288325725
0.36942571 0.21236856 0.71700001 4287993944
0.37027431 0.21207239 0.71600002 4287653470
0.37163809 0.21207239 0.71600002 4284756581
0.3730019 0.21207239 0.71600002 4281934960
-0.55280954 0.28319049 0.95000005 4287065439
-0.54809999 0.28170002 0.94500005 4287260773
-0.54630005 0.28170002 0.94500005 4287128427
-0.54450005 0.28170002 0.94500005 4286996068
-0.54269999 0.28170002 0.94500005 4286732637
-0.54089999 0.28170002 0.94500005 4286538076
-0.53738856 0.28080571 0.94200003 4286409050
-0.53730005 0.28170002 0.94500005 4286343259
-0.53549999 0.28170002 0.94500005 4286212187
-0.53652382 0.28319049 0.95000005 4286145368
-0.53471428 0.28319049 0.95000005 4286144341
-0.53178293 0.28259432 0.94800007 4286144598
-0.52830005 0.28170002 0.94500005 4286014039
-0.52649999 0.28170002 0.94500005 4285948500
-0.38478002 0.20658001 0.69300002 4286145105
-0.38401332 0.2068781 0.69400001 4286340172
-0.38269141 0.2068781 0.69400001 4285683272
-0.51765144 0.28080571 0.94200003 4285093195
-0.51585716 0.28080571 0.94200003 4284568655
-0.51406282 0.28080571 0.94200003 4284043853
-0.5122686 0.28080571 0.94200003 4283912524
-0.50939053 0.28020954 0.94000006 4283778124
-0.50760001 0.28020954 0.94000006 4282529868
-0.50580955 0.28020954 0.94000006 4281284166
-0.50401908 0.28020954 0.94000006 4282004799
-0.50329715 0.28080571 0.94200003 4282725176
-0.50150287 0.28080571 0.94200003 4282462769
-0.49970859 0.28080571 0.94200003 4282266165
-0.49791428 0.28080571 0.94200003 4282397241
-0.49612001 0.28080571 0.94200003 4282593591
-0.4985238 0.28319049 0.95000005 4282461493
-0.49566859 0.28259432 0.94800007 4282330426
-0.49386287 0.28259432 0.94800007 4282199360
-0.49205717 0.28259432 0.94800007 4282068283
-0.49025145 0.28259432 0.94800007 4282002998
-0.4894762 0.28319049 0.95000005 4282002996
-0.48664004 0.28259432 0.94800007 4281871923
-0.48483431 0.28259432 0.94800007 4281740845
-0.48302862 0.28259432 0.94800007 4282199591
-0.48122287 0.28259432 0.94800007 4282723632
-0.4779 0.28170002 0.94500005 4282330426
-0.47861907 0.28319049 0.95000005 4282001726
-0.47680953 0.28319049 0.95000005 4281675586
-0.47650003 0.2840848 0.95300007 4281412159
-0.4746848 0.2840848 0.95300007 4281937213
-0.47286955 0.2840848 0.95300007 4282461503
-0.47105432 0.2840848 0.95300007 4282265409
-0.47022381 0.28468096 0.95500004 4282069062
-0.46840477 0.28468096 0.95500004 4282528074
-0.46658573 0.28468096 0.95500004 4283051080
-0.46476668 0.28468096 0.95500004 4282853701
-0.46294764 0.28468096 0.95500004 4282657089
-0.46257716 0.28557527 0.95800006 4282526012
-0.46075243 0.28557527 0.95800006 4282395706
-0.46036479 0.28646952 0.96100003 4282330168
-0.4594886 0.28706571 0.96300006 4282330427
-0.4576543 0.28706571 0.96300006 4282069055
-0.45582002 0.28706571 0.96300006 4281871932
-0.45398575 0.28706571 0.96300006 4282395962
-0.45355999 0.28795999 0.96600002 4282919483
-0.45172 0.28795999 0.96600002 4282329916
-0.4484829 0.28706571 0.96300006 4281806907
-0.44804001 0.28795999 0.96600002 4281610811
-0.44758573 0.2888543 0.96900004 4281479482
-0.44574001 0.2888543 0.96900004 4281806906
-0.4452686 0.28974858 0.97200006 4282199611
-0.44341719 0.28974858 0.97200006 4282265916
-0.44156575 0.28974858 0.97200006 4282331709
-0.44061905 0.29034474 0.97400004 4282331966
-0.44011527 0.29123908 0.97700006 4282397245
-0.4382543 0.29123908 0.97700006 4282658108
-0.43639335 0.29123908 0.97700006 4282921020
-0.43586665 0.29213336 0.98000002 4282791741
-0.4353286 0.29302764 0.98300004 4282726461
-0.43345621 0.29302764 0.98300004 4282659645
-0.43158382 0.29302764 0.98300004 4282593601
-0.43058574 0.29362383 0.98500007 4282462021
-0.42870954 0.29362383 0.98500007 4282395971
-0.42813334 0.29451811 0.98800004 4282330434
-0.42754576 0.29541239 0.99100006 4282329922
-0.42565814 0.29541239 0.99100006 4282067522
-0.42505333 0.29630667 0.99400002 4281805882
-0.42315999 0.29630667 0.99400002 4281347634
-0.4225381 0.29720095 0.99700004 4280888118
-0.42063907 0.29720095 0.99700004 4281609531
-0.1932743 0.26649716 0.89400005 4286633214
-0.19157143 0.26649716 0.89400005 4294901502
-0.18986858 0.26649716 0.89400005 4294901502
-0.18816572 0.26649716 0.89400005 4294901502
-0.18583715 0.26560286 0.89100003 4293918462
-0.18414 0.26560286 0.89100003 4292970446
-0.18203335 0.26500669 0.88900006 4287234463
-0.18034001 0.26500669 0.88900006 4281571260
-0.17864667 0.26500669 0.88900006 4283539418
-0.17695335 0.26500669 0.88900006 4285551283
-0.17486572 0.2644105 0.88700002 4283373708
-0.17259049 0.26351622 0.88400006 4281218704
-0.17090668 0.26351622 0.88400006 4281481876
-0.16922286 0.26351622 0.88400006 4281805192
-0.16753906 0.26351622 0.88400006 4280030076
-0.16585524 0.26351622 0.88400006 4278266774
-0.16417143 0.26351622 0.88400006 4283974832
-0.16248763 0.26351622 0.88400006 4289696717
-0.16134953 0.2644105 0.88700002 4292272875
-0.15966 0.2644105 0.88700002 4294893805
-0.15797047 0.2644105 0.88700002 4294696687
-0.15698572 0.26560286 0.89100003 4294564844
-0.15528858 0.26560286 0.89100003 4294433002
-0.15359144 0.26560286 0.89100003 4294367207
-0.15189429 0.26560286 0.89100003 4294105060
-0.15019715 0.26560286 0.89100003 4293843176
-0.1485 0.26560286 0.89100003 4294171116
-0.14680286 0.26560286 0.89100003 4294500070
-0.14510572 0.26560286 0.89100003 4293444831
-0.14389144 0.26649716 0.89400005 4292393431
-0.14218858 0.26649716 0.89400005 4292456400
-0.14048572 0.26649716 0.89400005 4292585938
-0.13878287 0.26649716 0.89400005 4292846549
-0.13708 0.26649716 0.89400005 4293183456
-0.13568 0.26709333 0.89600003 4293843180
-0.13427238 0.26768953 0.89800006 4294566082
-0.13256191 0.26768953 0.89800006 4288642969
-0.13085143 0.26768953 0.89800006 4282712397
-0.12914096 0.26768953 0.89800006 4280811777
0.10042857 0.28319049 0.95000005 4291544796
0.1017 0.28170002 0.94500005 4293191676
0.1035 0.28170002 0.94500005 4294900474
0.10474286 0.28020954 0.94000006 4294703096
0.10619334 0.27931523 0.93700004 4294505722
0.10740191 0.27782476 0.93200004 4294704636
0.10894287 0.27722859 0.93000007 4294901244
0.11011905 0.27573812 0.92500007 4294901244
0.11188096 0.27573812 0.92500007 4294901501
0.11327429 0.27484384 0.92200005 4294901502
0.11478096 0.27424762 0.92000002 4294901502
0.11589999 0.27275717 0.91500002 4294901502
0.11764286 0.27275717 0.91500002 4294901502
0.11912477 0.27216095 0.91300005 4294901502
0.12020191 0.27067047 0.90800005 4294901502
0.12152857 0.2697762 0.90500003 4294901502
0.12325238 0.2697762 0.90500003 4294901502
0.12470001 0.26918 0.90300006 4294901502
0.12614 0.2685838 0.90100002 4294901502
0.12743048 0.26768953 0.89800006 4294901502
0.12914096 0.26768953 0.89800006 4294901502
0.13056 0.26709333 0.89600003 4294901502
0.13197143 0.26649716 0.89400005 4294901499
0.13367428 0.26649716 0.89400005 4294638328
0.13492286 0.26560286 0.89100003 4294374648
0.13631335 0.26500669 0.88900006 4294570488
0.13800667 0.26500669 0.88900006 4294834681
0.13938573 0.2644105 0.88700002 4294835962
0.14028001 0.26291999 0.88200003 4294901500
0.14196 0.26291999 0.88200003 4294901502
0.1433143 0.2623238 0.88000005 4294901500
0.14499047 0.2623238 0.88000005 4294769403
0.14633334 0.2617276 0.87800002 4294637818
0.14750001 0.26083335 0.87500006 4294505721
0.14916667 0.26083335 0.87500006 4294376184
0.15083335 0.26083335 0.87500006 4294502136
0.15215144 0.26023713 0.87300003 4294638328
0.15381429 0.26023713 0.87300003 4294506745
0.15547715 0.26023713 0.87300003 4294440440
0.15714 0.26023713 0.87300003 4294371318
0.15843906 0.25964096 0.87100005 4294372598
0.16009811 0.25964096 0.87100005 4294308343
0.16101429 0.25844857 0.86700004 4294308085
0.16304097 0.25904477 0.86900002 4294239476
0.16431715 0.25844857 0.86700004 4294174708
0.16596858 0.25844857 0.86700004 4294241268
0.16762 0.25844857 0.86700004 4294372340
0.16927144 0.25844857 0.86700004 4294438131
0.17052858 0.25785241 0.86500007 4294503924
0.17217621 0.25785241 0.86500007 4294373109
0.17382382 0.25785241 0.86500007 4294306549
0.17547144 0.25785241 0.86500007 4294372341
0.17711906 0.25785241 0.86500007 4294504948
0.17876668 0.25785241 0.86500007 4294303731
0.18041429 0.25785241 0.86500007 4294172659
0.18206191 0.25785241 0.86500007 4294172915
0.18264762 0.2563619 0.86000001 4294238963
0.18385714 0.25576574 0.85800004 4294239476
0.18549143 0.25576574 0.85800004 4294304499
0.18712573 0.25576574 0.85800004 4294236914
0.18876001 0.25576574 0.85800004 4294236915
0.1903943 0.25576574 0.85800004 4294237427
0.19202857 0.25576574 0.85800004 4294302450
0.19366287 0.25576574 0.85800004 4294236658
0.19529715 0.25576574 0.85800004 4294236146
0.19693144 0.25576574 0.85800004 4294102515
0.19856572 0.25576574 0.85800004 4294036979
0.19973335 0.25516954 0.85600007 4293905908
0.20136383 0.25516954 0.85600007 4293840115
0.2029943 0.25516954 0.85600007 4293708787
0.20462477 0.25516954 0.85600007 4293577967
0.20625526 0.25516954 0.85600007 4293444332
0.20788573 0.25516954 0.85600007 4293379309
0.20951621 0.25516954 0.85600007 4293249007
0.21065333 0.25457335 0.85400003 4293182954
0.21228001 0.25457335 0.85400003 4293312230
0.21390668 0.25457335 0.85400003 4293508324
0.21553335 0.25457335 0.85400003 4292983523
0.21716 0.25457335 0.85400003 4292524768
0.21878667 0.25457335 0.85400003 4292656093
0.22041334 0.25457335 0.85400003 4292785884
0.22204001 0.25457335 0.85400003 4292129498
0.22366667 0.25457335 0.85400003 4291539417
0.22529334 0.25457335 0.85400003 4291604951
0.22692001 0.25457335 0.85400003 4291735252
0.22854668 0.25457335 0.85400003 4291731409
0.23017333 0.25457335 0.85400003 4291732175
0.2318 0.25457335 0.85400003 4291470285
0.23342668 0.25457335 0.85400003 4291207111
0.23560382 0.25516954 0.85600007 4291009474
0.23668 0.25457335 0.85400003 4290812095
0.23886478 0.25516954 0.85600007 4290614973
0.24049525 0.25516954 0.85600007 4290417850
0.24156001 0.25457335 0.85400003 4290286520
0.2437562 0.25516954 0.85600007 4290154676
0.24538668 0.25516954 0.85600007 4290023088
0.24701715 0.25516954 0.85600007 4289957291
0.24864763 0.25516954 0.85600007 4289825446
0.25027812 0.25516954 0.85600007 4289759656
0.2519086 0.25516954 0.85600007 4289628585
0.25353909 0.25516954 0.85600007 4289497003
0.25516954 0.25516954 0.85600007 4289234349
0.25680003 0.25516954 0.85600007 4289037732
0.2596381 0.2563619 0.86000001 4288314780
0.26127619 0.2563619 0.86000001 4287659934
0.26352572 0.25695813 0.86200005 4288053665
0.26516765 0.25695813 0.86200005 4288446880
0.26680955 0.25695813 0.86200005 4288446624
0.26938573 0.25785241 0.86500007 4288510367
0.27103335 0.25785241 0.86500007 4288576159
0.27268097 0.25785241 0.86500007 4288707998
0.27432859 0.25785241 0.86500007 4288510365
0.27597621 0.25785241 0.86500007 4288314013
0.27762383 0.25785241 0.86500007 4288183965
0.27927145 0.25785241 0.86500007 4288117407
0.28091908 0.25785241 0.86500007 4287854753
0.28322002 0.25844857 0.86700004 4287658395
0.28552857 0.25904477 0.86900002 4287658646
0.28784478 0.25964096 0.87100005 4287722374
0.28950381 0.25964096 0.87100005 4286598263
0.29183143 0.26023713 0.87300003 4285490309
0.29282191 0.25964096 0.87100005 4286213524
0.29515713 0.26023713 0.87300003 4286999700
0.29682001 0.26023713 0.87300003 4286999701
0.30019239 0.2617276 0.87800002 4287064982
0.3025524 0.2623238 0.88000005 4286868375
0.3042286 0.2623238 0.88000005 4286736786
0.30590478 0.2623238 0.88000005 4286604941
0.30897906 0.26351622 0.88400006 4286538119
0.31171715 0.2644105 0.88700002 4286799746
0.31340665 0.2644105 0.88700002 4287061630
0.31580669 0.26500669 0.88900006 4286471547
0.31821427 0.26560286 0.89100003 4285947515
0.3209886 0.26649716 0.89400005 4285617530
0.32341334 0.26709333 0.89600003 4285289845
0.32584575 0.26768953 0.89800006 4285224560
0.32865047 0.2685838 0.90100002 4285224036
0.33036667 0.2685838 0.90100002 4283577943
0.37121147 0.28974858 0.97200006 4281539862
0.37306288 0.28974858 0.97200006 4281867030
0.37375715 0.2888543 0.96900004 4282390806
0.37560287 0.2888543 0.96900004 4282978839
0.37511146 0.28706571 0.96300006 4282256664
0.37616286 0.28646952 0.96100003 4281535765
0.37681335 0.28557527 0.95800006 4282256659
0.3774524 0.28468096 0.95500004 4282979095
0.37847716 0.2840848 0.95300007 4283309595
0.37909526 0.28319049 0.95000005 4283702297
0.37890002 0.28170002 0.94500005 4284094998
0.37949142 0.28080571 0.94200003 4284488476
0.38047621 0.28020954 0.94000006 4284225826
0.38104668 0.27931523 0.93700004 4284030504
0.3820143 0.27871907 0.93500006 4284098862
