# .PCD v0.7 - Point Cloud Data file format
VERSION 0.7
FIELDS x y z rgba
SIZE 4 4 4 4
TYPE F F F U
COUNT 1 1 1 1
WIDTH 1077
HEIGHT 1
VIEWPOINT 0 0 0 1 0 0 0
POINTS 1077
DATA ascii
-0.097682856 0.12836857 0.537 4281808689
-0.096660003 0.12836857 0.537 4280623389
-0.095459051 0.12812953 0.53600001 4281340169
-0.094438098 0.12812953 0.53600001 4282058522
-0.093417145 0.12812953 0.53600001 4282399276
-0.092396185 0.12812953 0.53600001 4282791474
-0.091545716 0.12836857 0.537 4282859576
-0.090354286 0.12812953 0.53600001 4282927922
-0.089499995 0.12836857 0.537 4282929452
-0.088312387 0.12812953 0.53600001 4282930224
-0.087454289 0.12836857 0.537 4281872948
-0.086431429 0.12836857 0.537 4280823346
-0.085408568 0.12836857 0.537 4281284913
-0.084385715 0.12836857 0.537 4281745706
-0.083362855 0.12836857 0.537 4281613603
-0.082493335 0.12860763 0.53800005 4281547284
-0.081468575 0.12860763 0.53800005 4280689413
-0.080443822 0.12860763 0.53800005 4279831571
-0.079419054 0.12860763 0.53800005 4280630818
-0.078394294 0.12860763 0.53800005 4281417264
-0.077513337 0.12884666 0.53900003 4281872958
-0.076486669 0.12884666 0.53900003 4282331951
-0.075460002 0.12884666 0.53900003 4281342496
-0.074433342 0.12884666 0.53900003 4280288791
-0.073406667 0.12884666 0.53900003 4280162574
-0.072514281 0.12908572 0.54000002 4280031751
-0.071485721 0.12908572 0.54000002 4280162817
-0.07058762 0.12932476 0.54100001 4280293895
-0.069557145 0.12932476 0.54100001 4280491789
-0.068653338 0.12956381 0.54200006 4280756497
-0.067620955 0.12956381 0.54200006 4281020438
-0.066711433 0.12980287 0.54300004 4281349910
-0.065677151 0.12980287 0.54300004 4281546262
-0.064642861 0.12980287 0.54300004 4281742880
-0.063725717 0.13004191 0.54400003 4281742890
-0.062689528 0.13004191 0.54400003 4281808427
-0.06188 0.13052 0.546 4281611308
-0.06095143 0.13075906 0.54700005 4281414185
-0.06001905 0.1309981 0.54800004 4281479718
-0.058975242 0.1309981 0.54800004 4281545506
-0.057931431 0.1309981 0.54800004 4281349406
-0.056887619 0.1309981 0.54800004 4281217314
-0.055945717 0.13123715 0.54900002 4280888870
-0.054900002 0.13123715 0.54900002 4280626209
-0.053756192 0.1309981 0.54800004 4281150237
-0.05348191 0.13291049 0.55600005 4281674270
-0.052611433 0.13338858 0.55800003 4281608992
-0.05164095 0.13362762 0.55900002 4281543707
-0.050666668 0.13386667 0.56 4281543191
-0.049600001 0.13386667 0.56 4281542948
-0.048706669 0.13434477 0.56200004 4281412402
-0.047720954 0.13458382 0.56300002 4281345320
-0.046814285 0.1350619 0.565 4281215263
-0.045738097 0.1350619 0.565 4281018652
-0.044661906 0.1350619 0.565 4280362266
-0.026319999 0.14056 0.588 4278913826
-0.025199998 0.14056 0.588 4279372319
-0.024080001 0.14056 0.588 4280299293
-0.02299905 0.14079905 0.58900005 4281222187
-0.021877145 0.14079905 0.58900005 4281680185
-0.020719999 0.14056 0.588 4282140220
-0.019633334 0.14079905 0.58900005 4282337087
-0.018511431 0.14079905 0.58900005 4282599232
-0.017389525 0.14079905 0.58900005 4283125569
-0.01626762 0.14079905 0.58900005 4283649583
-0.015145715 0.14079905 0.58900005 4282795294
-0.1296 0.13493334 0.56 4283848785
-0.12830381 0.13469239 0.55900002 4283716939
-0.12701143 0.13445143 0.55800003 4283454278
-0.12594858 0.13445143 0.55800003 4283256133
-0.12466191 0.13421048 0.55700004 4283254853
-0.12249144 0.13300572 0.55200005 4283320379
-0.12144001 0.13300572 0.55200005 4283451442
-0.11995238 0.13252382 0.55000001 4283581750
-0.11868858 0.13228285 0.54900002 4283780666
-0.11742858 0.13204192 0.54800004 4283977008
-0.11638477 0.13204192 0.54800004 4283190567
-0.11492 0.13156 0.546 4282403113
-0.11367143 0.13131906 0.54500002 4280686123
-0.11242667 0.13107809 0.54400003 4278989355
-0.11118572 0.13083716 0.54300004 4280629548
-0.10994858 0.13059619 0.54200006 4282269489
-0.1089162 0.13059619 0.54200006 4282794807
-0.10788383 0.13059619 0.54200006 4283320887
-0.10665429 0.13035524 0.54100001 4283518775
-0.1056238 0.13035524 0.54100001 4283714872
-0.1044 0.13011429 0.54000002 4283650617
-0.10337143 0.13011429 0.54000002 4283585336
-0.10215334 0.12987334 0.53900003 4283454519
-0.10112667 0.12987334 0.53900003 4283388731
-0.099914297 0.1296324 0.53800005 4282925374
-0.098705709 0.12939143 0.537 4282463289
-0.097682856 0.12939143 0.537 4280821556
-0.096479997 0.12915048 0.53600001 4279182120
-0.095459051 0.12915048 0.53600001 4280748316
-0.094438098 0.12915048 0.53600001 4282328871
-0.093417145 0.12915048 0.53600001 4282731570
-0.092568569 0.12939143 0.537 4283191093
-0.091545716 0.12939143 0.537 4283191864
-0.090522863 0.12939143 0.537 4283191601
-0.089499995 0.12939143 0.537 4283322667
-0.088477142 0.12939143 0.537 4283517231
-0.087454289 0.12939143 0.537 4281805107
-0.086431429 0.12939143 0.537 4280168494
-0.085408568 0.12939143 0.537 4280629802
-0.084385715 0.12939143 0.537 4281153832
-0.083362855 0.12939143 0.537 4280494374
-0.082493335 0.1296324 0.53800005 4279906588
-0.081468575 0.1296324 0.53800005 4280629522
-0.080443822 0.1296324 0.53800005 4281418006
-0.079419054 0.1296324 0.53800005 4281354778
-0.078394294 0.1296324 0.53800005 4281351203
-0.077513337 0.12987334 0.53900003 4281347885
-0.076486669 0.12987334 0.53900003 4281408294
-0.075460002 0.12987334 0.53900003 4280485920
-0.074433342 0.12987334 0.53900003 4279569942
-0.073406667 0.12987334 0.53900003 4279899147
-0.072514281 0.13011429 0.54000002 4280226570
-0.071485721 0.13011429 0.54000002 4280292104
-0.07058762 0.13035524 0.54100001 4280424715
-0.06968572 0.13059619 0.54200006 4281475343
-0.068653338 0.13059619 0.54200006 4282592278
-0.067620955 0.13059619 0.54200006 4282136350
-0.066711433 0.13083716 0.54300004 4281677593
-0.065677151 0.13083716 0.54300004 4281742868
-0.064761907 0.13107809 0.54400003 4281808676
-0.063842863 0.13131906 0.54500002 4281743413
-0.062689528 0.13107809 0.54400003 4281742895
-0.06188 0.13156 0.546 4281414442
-0.06095143 0.13180096 0.54700005 4281086499
-0.06001905 0.13204192 0.54800004 4281348636
-0.058975242 0.13204192 0.54800004 4281676573
-0.057931431 0.13204192 0.54800004 4281480735
-0.056991432 0.13228285 0.54900002 4281282593
-0.055945717 0.13228285 0.54900002 4281347876
-0.055 0.13252382 0.55000001 4281413154
-0.054540958 0.13396953 0.55600005 4281673248
-0.053385712 0.13372858 0.55500001 4282002467
-0.052422862 0.13396953 0.55600005 4282331431
-0.051456194 0.13421048 0.55700004 4282658593
-0.050666668 0.13493334 0.56 4282199580
-0.049688574 0.1351743 0.56100005 4281805600
-0.048793335 0.13565619 0.56300002 4281543460
-0.047805712 0.13589714 0.56400001 4281281054
-0.046814285 0.13613808 0.565 4281018648
-0.045738097 0.13613808 0.565 4280822034
-0.044661906 0.13613808 0.565 4279836941
-0.025199998 0.14167999 0.588 4278914081
-0.024080001 0.14167999 0.588 4279900709
-0.02299905 0.14192097 0.58900005 4280890924
-0.021877145 0.14192097 0.58900005 4281418036
-0.020719999 0.14167999 0.588 4282009911
-0.019633334 0.14192097 0.58900005 4282402874
-0.018511431 0.14192097 0.58900005 4282860861
-0.017419048 0.14216191 0.59000003 4283583553
-0.01626762 0.14192097 0.58900005 4284304699
-0.015145715 0.14192097 0.58900005 4283583798
-0.1280743 0.13551429 0.55800003 4283847505
-0.12678382 0.13527143 0.55700004 4283585355
-0.12549716 0.13502859 0.55600005 4283387209
-0.12399048 0.13454285 0.55400002 4283255367
-0.12271334 0.13430001 0.55300003 4283189818
-0.12144001 0.13405715 0.55200005 4283254829
-0.12017047 0.13381429 0.551 4283320109
-0.11890477 0.13357143 0.55000001 4283451181
-0.11742858 0.13308571 0.54800004 4283582245
-0.11638477 0.13308571 0.54800004 4282795294
-0.11492 0.13259999 0.546 4282074148
-0.11367143 0.13235715 0.54500002 4281211946
-0.11242667 0.13211429 0.54400003 4280364329
-0.11118572 0.13187143 0.54300004 4281482280
-0.10994858 0.13162857 0.54200006 4282532660
-0.1089162 0.13162857 0.54200006 4282992961
-0.10788383 0.13162857 0.54200006 4283453244
-0.10665429 0.13138571 0.54100001 4283584312
-0.1056238 0.13138571 0.54100001 4283780664
-0.1044 0.13114287 0.54000002 4283584825
-0.10318001 0.13090001 0.53900003 4283388214
-0.10215334 0.13090001 0.53900003 4283061555
-0.10093905 0.13065715 0.53800005 4282799154
-0.099728569 0.13041428 0.537 4282663217
-0.098521911 0.13017143 0.53600001 4282527540
-0.097682856 0.13041428 0.537 4281739832
-0.096479997 0.13017143 0.53600001 4281017908
-0.095459051 0.13017143 0.53600001 4281873968
-0.094438098 0.13017143 0.53600001 4282730292
-0.093417145 0.13017143 0.53600001 4283124024
-0.092568569 0.13041428 0.537 4283584056
-0.091545716 0.13041428 0.537 4283321912
-0.090354286 0.13017143 0.53600001 4283059761
-0.089333333 0.13017143 0.53600001 4282926635
-0.088477142 0.13041428 0.537 4282793774
-0.087454289 0.13041428 0.537 4281677874
-0.086431429 0.13041428 0.537 4280627754
-0.085408568 0.13041428 0.537 4281086243
-0.084385715 0.13041428 0.537 4281544998
-0.083362855 0.13041428 0.537 4281215785
-0.082340002 0.13041428 0.537 4280879652
-0.081468575 0.13065715 0.53800005 4281548319
-0.080443822 0.13065715 0.53800005 4282206745
-0.079419054 0.13065715 0.53800005 4281156115
-0.078394294 0.13065715 0.53800005 4280171287
-0.077513337 0.13090001 0.53900003 4280820764
-0.076486669 0.13090001 0.53900003 4281467934
-0.075460002 0.13090001 0.53900003 4280815905
-0.074433342 0.13090001 0.53900003 4280229397
-0.073406667 0.13090001 0.53900003 4280227849
-0.072380006 0.13090001 0.53900003 4280291852
-0.071485721 0.13114287 0.54000002 4280226320
-0.070457146 0.13114287 0.54000002 4280162576
-0.06968572 0.13162857 0.54200006 4280620049
-0.068653338 0.13162857 0.54200006 4281077788
-0.067620955 0.13162857 0.54200006 4281082663
-0.066711433 0.13187143 0.54300004 4281087773
-0.065677151 0.13187143 0.54300004 4281413395
-0.064642861 0.13187143 0.54300004 4281673513
-0.063725717 0.13211429 0.54400003 4281677120
-0.062689528 0.13211429 0.54400003 4281742900
-0.061766669 0.13235715 0.54500002 4281545257
-0.060839999 0.13259999 0.546 4281413918
-0.05990953 0.13284287 0.54700005 4281741843
-0.058975242 0.13308571 0.54800004 4282004249
-0.057931431 0.13308571 0.54800004 4281741600
-0.056991432 0.13332859 0.54900002 4281544737
-0.056047622 0.13357143 0.55000001 4281675810
-0.055099998 0.13381429 0.551 4281807138
-0.054540958 0.13502859 0.55600005 4281871139
-0.05348191 0.13502859 0.55600005 4282002985
-0.052422862 0.13502859 0.55600005 4282134319
-0.05164095 0.13575713 0.55900002 4282265640
-0.050576191 0.13575713 0.55900002 4282002977
-0.049600001 0.13600001 0.56 4281805852
-0.048706669 0.13648573 0.56200004 4281608983
-0.047720954 0.13672857 0.56300002 4281412116
-0.046648573 0.13672857 0.56300002 4281149713
-0.045738097 0.13721429 0.565 4280887561
-0.025199998 0.1428 0.588 4279111202
-0.024080001 0.1428 0.588 4279899950
-0.02299905 0.14304286 0.58900005 4280690734
-0.021877145 0.14304286 0.58900005 4281353519
-0.020755239 0.14304286 0.58900005 4282010674
-0.019633334 0.14304286 0.58900005 4282337077
-0.018542858 0.14328572 0.59000003 4282729531
-0.017419048 0.14328572 0.59000003 4283190081
-0.01626762 0.14304286 0.58900005 4283649351
-0.015145715 0.14304286 0.58900005 4283452494
-0.1280743 0.13657714 0.55800003 4283978833
-0.1265562 0.13608763 0.55600005 4283716430
-0.12527142 0.13584284 0.55500001 4283517512
-0.12421428 0.13584284 0.55500001 4283255619
-0.12249144 0.13510859 0.55200005 4283058236
-0.121 0.13461906 0.55000001 4283047989
-0.11995238 0.13461906 0.55000001 4283056439
-0.11868858 0.13437429 0.54900002 4283124536
-0.11742858 0.13412954 0.54800004 4283189549
-0.11638477 0.13412954 0.54800004 4282466594
-0.11492 0.13364001 0.546 4281810204
-0.11367143 0.13339524 0.54500002 4281803285
-0.11242667 0.13315049 0.54400003 4281805605
-0.11118572 0.13290572 0.54300004 4282335030
-0.10994858 0.13266097 0.54200006 4282861377
-0.1089162 0.13266097 0.54200006 4283191117
-0.10788383 0.13266097 0.54200006 4283584326
-0.10665429 0.13241619 0.54100001 4283715390
-0.1056238 0.13241619 0.54100001 4283846466
-0.1044 0.13217142 0.54000002 4283519046
-0.10318001 0.13192667 0.53900003 4283257662
-0.10215334 0.13192667 0.53900003 4282734134
-0.10093905 0.1316819 0.53800005 4282206506
-0.099728569 0.13143714 0.537 4282391071
-0.098705709 0.13143714 0.537 4282592042
-0.097682856 0.13143714 0.537 4282726708
-0.096479997 0.13119237 0.53600001 4282922804
-0.095459051 0.13119237 0.53600001 4283053620
-0.094438098 0.13119237 0.53600001 4283186490
-0.093417145 0.13119237 0.53600001 4283581760
-0.092396185 0.13119237 0.53600001 4283975740
-0.091375239 0.13119237 0.53600001 4283452216
-0.090354286 0.13119237 0.53600001 4282993202
-0.089333333 0.13119237 0.53600001 4282530092
-0.088312387 0.13119237 0.53600001 4282136875
-0.087454289 0.13143714 0.537 4281612586
-0.086270474 0.13119237 0.53600001 4281085226
-0.085249521 0.13119237 0.53600001 4281536297
-0.084228575 0.13119237 0.53600001 4282003243
-0.083362855 0.13143714 0.537 4281937196
-0.082186669 0.13119237 0.53600001 4281940015
-0.081317142 0.13143714 0.537 4282467379
-0.080294281 0.13143714 0.537 4282988062
-0.079419054 0.1316819 0.53800005 4281018634
-0.078394294 0.1316819 0.53800005 4279050519
-0.077369526 0.1316819 0.53800005 4280293925
-0.076344773 0.1316819 0.53800005 4281542176
-0.075320005 0.1316819 0.53800005 4281217820
-0.074433342 0.13192667 0.53900003 4280885781
-0.073406667 0.13192667 0.53900003 4280623374
-0.072380006 0.13192667 0.53900003 4280357900
-0.071485721 0.13217142 0.54000002 4280095242
-0.070457146 0.13217142 0.54000002 4279899913
-0.06968572 0.13266097 0.54200006 4279698953
-0.068653338 0.13266097 0.54200006 4279569681
-0.067620955 0.13266097 0.54200006 4280028441
-0.066588581 0.13266097 0.54200006 4280552730
-0.065677151 0.13290572 0.54300004 4281077018
-0.064642861 0.13290572 0.54300004 4281607206
-0.063842863 0.13339524 0.54500002 4281676337
-0.062689528 0.13315049 0.54400003 4281741869
-0.061766669 0.13339524 0.54500002 4281741866
-0.060839999 0.13364001 0.546 4281807904
-0.05990953 0.13388477 0.54700005 4282070551
-0.058975242 0.13412954 0.54800004 4282397723
-0.057931431 0.13412954 0.54800004 4282069536
-0.056991432 0.13437429 0.54900002 4281807904
-0.056047622 0.13461906 0.55000001 4282005281
-0.055300001 0.13535333 0.55300003 4282265633
-0.054540958 0.13608763 0.55600005 4282132770
-0.05348191 0.13608763 0.55600005 4282002211
-0.052422862 0.13608763 0.55600005 4281937445
-0.051548574 0.13657714 0.55800003 4281871908
-0.050576191 0.13682191 0.55900002 4281806371
-0.049600001 0.13706666 0.56 4281805848
-0.048706669 0.1375562 0.56200004 4281674766
-0.047636192 0.1375562 0.56200004 4281608977
-0.046565719 0.1375562 0.56200004 4281281813
-0.024161905 0.14440952 0.59000003 4279899430
-0.023038095 0.14440952 0.59000003 4280559400
-0.021914288 0.14440952 0.59000003 4281289259
-0.020755239 0.14416477 0.58900005 4282009649
-0.019666668 0.14440952 0.59000003 4282271288
-0.018542858 0.14440952 0.59000003 4282598461
-0.017419048 0.14440952 0.59000003 4282796610
-0.016295239 0.14440952 0.59000003 4282993996
-0.015171429 0.14440952 0.59000003 4283257686
-0.01404762 0.14440952 0.59000003 4283584305
-0.12632857 0.13689999 0.55500001 4283649618
-0.12527142 0.13689999 0.55500001 4283385928
-0.12376667 0.13640667 0.55300003 4283124031
-0.12249144 0.13616002 0.55200005 4282926910
-0.12122 0.13591333 0.551 4282728766
-0.11995238 0.13566667 0.55000001 4282530625
-0.11868858 0.13542001 0.54900002 4282729796
-0.11742858 0.13517334 0.54800004 4282993717
-0.11638477 0.13517334 0.54800004 4282597415
-0.11492 0.13468 0.546 4282201876
-0.11367143 0.13443333 0.54500002 4282134529
-0.11242667 0.13418667 0.54400003 4282132770
-0.11118572 0.13394001 0.54300004 4282598468
-0.10994858 0.13369335 0.54200006 4283061327
-0.1089162 0.13369335 0.54200006 4283257434
-0.10788383 0.13369335 0.54200006 4283519311
-0.10665429 0.13344666 0.54100001 4283584581
-0.10542858 0.1332 0.54000002 4283650636
-0.10420667 0.13295335 0.53900003 4283387988
-0.10318001 0.13295335 0.53900003 4283192902
-0.10196382 0.13270667 0.53800005 4282337849
-0.10093905 0.13270667 0.53800005 4281548579
-0.099728569 0.13246 0.537 4282200846
-0.098705709 0.13246 0.537 4282853151
-0.097682856 0.13246 0.537 4282991153
-0.096479997 0.13221334 0.53600001 4283126581
-0.095459051 0.13221334 0.53600001 4283121977
-0.094438098 0.13221334 0.53600001 4283183424
-0.093417145 0.13221334 0.53600001 4283319368
-0.092568569 0.13246 0.537 4283515968
-0.091375239 0.13221334 0.53600001 4282991928
-0.090354286 0.13221334 0.53600001 4282467890
-0.089333333 0.13221334 0.53600001 4282069549
-0.088312387 0.13221334 0.53600001 4281676072
-0.087454289 0.13246 0.537 4281019683
-0.086431429 0.13246 0.537 4280428841
-0.085249521 0.13221334 0.53600001 4281674544
-0.084228575 0.13221334 0.53600001 4282854704
-0.083362855 0.13246 0.537 4282266672
-0.082340002 0.13246 0.537 4281744955
-0.081317142 0.13246 0.537 4282003783
-0.080294281 0.13246 0.537 4282328356
-0.079419054 0.13270667 0.53800005 4281410049
-0.078394294 0.13270667 0.53800005 4280422423
-0.077369526 0.13270667 0.53800005 4280952110
-0.076344773 0.13270667 0.53800005 4281542691
-0.075320005 0.13270667 0.53800005 4281214744
-0.074295245 0.13270667 0.53800005 4280952598
-0.073406667 0.13295335 0.53900003 4280557076
-0.072380006 0.13295335 0.53900003 4280096268
-0.071485721 0.1332 0.54000002 4279899396
-0.070457146 0.1332 0.54000002 4279637250
-0.069557145 0.13344666 0.54100001 4279241217
-0.068653338 0.13369335 0.54200006 4278913542
-0.067620955 0.13369335 0.54200006 4279700236
-0.066588581 0.13369335 0.54200006 4280552471
-0.065677151 0.13394001 0.54300004 4281012770
-0.064642861 0.13394001 0.54300004 4281475618
-0.063725717 0.13418667 0.54400003 4281413923
-0.062804759 0.13443333 0.54500002 4281349159
-0.061766669 0.13443333 0.54500002 4281546027
-0.060839999 0.13468 0.546 4281743139
-0.059799999 0.13468 0.546 4281873947
-0.058867622 0.13492668 0.54700005 4282005022
-0.057931431 0.13517334 0.54800004 4281873953
-0.056991432 0.13542001 0.54900002 4281743136
-0.056149524 0.13591333 0.551 4281939232
-0.055400003 0.13665333 0.55400002 4282134305
-0.054540958 0.13714668 0.55600005 4282002466
-0.05348191 0.13714668 0.55600005 4281935902
-0.052422862 0.13714668 0.55600005 4281871387
-0.05164095 0.13788667 0.55900002 4281805856
-0.050576191 0.13788667 0.55900002 4281674789
-0.049600001 0.13813333 0.56 4281543701
-0.048620004 0.13838001 0.56100005 4281609221
-0.047636192 0.13862668 0.56200004 4281674511
-0.046565719 0.13862668 0.56200004 4281281562
-0.023038095 0.14553334 0.59000003 4280493602
-0.02195143 0.14578 0.59100002 4281217831
-0.020790478 0.14553334 0.59000003 4281876529
-0.019666668 0.14553334 0.59000003 4282336571
-0.018542858 0.14553334 0.59000003 4282795327
-0.017419048 0.14553334 0.59000003 4282927428
-0.016295239 0.14553334 0.59000003 4283059537
-0.015145715 0.14528668 0.58900005 4283322718
-0.014023811 0.14528668 0.58900005 4283519801
-0.012901906 0.14528668 0.58900005 4281143573
-0.12632857 0.13795714 0.55500001 4283517519
-0.12527142 0.13795714 0.55500001 4283255620
-0.12354288 0.13721143 0.55200005 4282993722
-0.12226952 0.13696286 0.551 4282794796
-0.12122 0.13696286 0.551 4282387487
-0.11995238 0.13671429 0.55000001 4282005036
-0.11868858 0.13646571 0.54900002 4282400824
-0.11742858 0.13621716 0.54800004 4282859313
-0.11638477 0.13621716 0.54800004 4282728233
-0.11492 0.13572 0.546 4282595104
-0.11367143 0.13547143 0.54500002 4282528023
-0.11242667 0.13522287 0.54400003 4282462505
-0.11118572 0.13497429 0.54300004 4282861884
-0.10994858 0.13472573 0.54200006 4283257926
-0.1089162 0.13472573 0.54200006 4283323473
-0.10788383 0.13472573 0.54200006 4283454024
-0.10665429 0.13447714 0.54100001 4283453504
-0.10542858 0.13422857 0.54000002 4283453508
-0.10420667 0.13398002 0.53900003 4283322441
-0.10318001 0.13398002 0.53900003 4283191107
-0.10196382 0.13373144 0.53800005 4282005054
-0.10093905 0.13373144 0.53800005 4280890929
-0.099728569 0.13348286 0.537 4282005284
-0.098705709 0.13348286 0.537 4283187503
-0.097682856 0.13348286 0.537 4283255611
-0.096479997 0.13323428 0.53600001 4283322937
-0.095459051 0.13323428 0.53600001 4283256119
-0.094438098 0.13323428 0.53600001 4283254844
-0.093417145 0.13323428 0.53600001 4283122754
-0.092396185 0.13323428 0.53600001 4283057209
-0.091375239 0.13323428 0.53600001 4282532912
-0.090354286 0.13323428 0.53600001 4282006052
-0.089166671 0.13298573 0.53500003 4281608983
-0.088312387 0.13323428 0.53600001 4281216541
-0.087617151 0.13373144 0.53800005 4280494370
-0.086431429 0.13348286 0.537 4279840041
-0.085249521 0.13323428 0.53600001 4281807408
-0.084228575 0.13323428 0.53600001 4283774508
-0.083362855 0.13348286 0.537 4282661673
-0.082340002 0.13348286 0.537 4281546802
-0.081317142 0.13348286 0.537 4281603387
-0.080294281 0.13348286 0.537 4281735208
-0.079419054 0.13373144 0.53800005 4281801749
-0.078394294 0.13373144 0.53800005 4281869868
-0.077369526 0.13373144 0.53800005 4281676100
-0.076344773 0.13373144 0.53800005 4281544233
-0.075320005 0.13373144 0.53800005 4281278223
-0.074433342 0.13398002 0.53900003 4281081105
-0.073406667 0.13398002 0.53900003 4280490771
-0.072380006 0.13398002 0.53900003 4279899403
-0.071485721 0.13422857 0.54000002 4279638276
-0.070457146 0.13422857 0.54000002 4279439877
-0.069557145 0.13447714 0.54100001 4278849029
-0.068653338 0.13472573 0.54200006 4278257673
-0.067620955 0.13472573 0.54200006 4279376141
-0.066588581 0.13472573 0.54200006 4280555543
-0.065556198 0.13472573 0.54200006 4280948514
-0.064642861 0.13497429 0.54300004 4281411362
-0.063725717 0.13522287 0.54400003 4281151778
-0.062804759 0.13547143 0.54500002 4280956708
-0.061766669 0.13547143 0.54500002 4281350950
-0.060839999 0.13572 0.546 4281743140
-0.059799999 0.13572 0.546 4281678115
-0.058760002 0.13572 0.546 4281677604
-0.057825722 0.13596858 0.54700005 4281677861
-0.056783814 0.13596858 0.54700005 4281677093
-0.056251429 0.13721143 0.55200005 4281807653
-0.055500001 0.13795714 0.55500001 4282003745
-0.054540958 0.13820572 0.55600005 4281937950
-0.053385712 0.13795714 0.55500001 4281871382
-0.052422862 0.13820572 0.55600005 4281805582
-0.05164095 0.13895144 0.55900002 4281739800
-0.050576191 0.13895144 0.55900002 4281477667
-0.049600001 0.1392 0.56 4281281565
-0.048620004 0.13944857 0.56100005 4281543960
-0.047551431 0.13944857 0.56100005 4281805848
-0.046565719 0.13969715 0.56200004 4281281304
-0.02195143 0.14690572 0.59100002 4281150760
-0.020755239 0.14640859 0.58900005 4281812785
-0.019666668 0.14665715 0.59000003 4282402106
-0.018574286 0.14690572 0.59100002 4282992192
-0.017419048 0.14665715 0.59000003 4283058246
-0.016295239 0.14665715 0.59000003 4283190607
-0.015145715 0.14640859 0.58900005 4283322199
-0.014023811 0.14640859 0.58900005 4283517754
-0.012901906 0.14640859 0.58900005 4281341214
-0.12632857 0.13901427 0.55500001 4283518540
-0.12527142 0.13901427 0.55500001 4283254080
-0.12376667 0.13851334 0.55300003 4283056693
-0.12249144 0.13826287 0.55200005 4282859547
-0.12144001 0.13826287 0.55200005 4282595585
-0.11995238 0.13776191 0.55000001 4282331671
-0.11868858 0.13751143 0.54900002 4282661933
-0.11742858 0.13726096 0.54800004 4282989612
-0.11638477 0.13726096 0.54800004 4282923564
-0.11492 0.13676001 0.546 4282857517
-0.11367143 0.13650952 0.54500002 4282857774
-0.11242667 0.13625905 0.54400003 4282923569
-0.11118572 0.13600858 0.54300004 4283256372
-0.10994858 0.13575812 0.54200006 4283651134
-0.1089162 0.13575812 0.54200006 4283585353
-0.10788383 0.13575812 0.54200006 4283519810
-0.10665429 0.13550763 0.54100001 4283453243
-0.10523334 0.13500667 0.53900003 4283453244
-0.10420667 0.13500667 0.53900003 4283322174
-0.10298858 0.13475621 0.53800005 4283189312
-0.10196382 0.13475621 0.53800005 4282530883
-0.10093905 0.13475621 0.53800005 4281939774
-0.099914297 0.13475621 0.53800005 4282727226
-0.098705709 0.13450572 0.537 4283582271
-0.097682856 0.13450572 0.537 4283452485
-0.096479997 0.13425525 0.53600001 4283322941
-0.095459051 0.13425525 0.53600001 4283387189
-0.094438098 0.13425525 0.53600001 4283450680
-0.093417145 0.13425525 0.53600001 4283188540
-0.092568569 0.13450572 0.537 4282926386
-0.091375239 0.13425525 0.53600001 4282333737
-0.090354286 0.13425525 0.53600001 4281741077
-0.089000002 0.1337543 0.53400004 4281676034
-0.088641912 0.13475621 0.53800005 4281676562
-0.087617151 0.13475621 0.53800005 4281414946
-0.086270474 0.13425525 0.53600001 4281153577
-0.085249521 0.13425525 0.53600001 4282072368
-0.084071428 0.13400476 0.53500003 4282991401
-0.083362855 0.13450572 0.537 4281940771
-0.082186669 0.13425525 0.53600001 4280890153
-0.081317142 0.13450572 0.537 4281475119
-0.080294281 0.13450572 0.537 4282063660
-0.079419054 0.13475621 0.53800005 4282460458
-0.078394294 0.13475621 0.53800005 4282791746
-0.077369526 0.13475621 0.53800005 4282200410
-0.076344773 0.13475621 0.53800005 4281611312
-0.075320005 0.13475621 0.53800005 4281672454
-0.074433342 0.13500667 0.53900003 4281669900
-0.073406667 0.13500667 0.53900003 4280882962
-0.072380006 0.13500667 0.53900003 4280030475
-0.071485721 0.13525714 0.54000002 4279833093
-0.07058762 0.13550763 0.54100001 4279635719
-0.069557145 0.13550763 0.54100001 4279372810
-0.068653338 0.13575812 0.54200006 4279174924
-0.067620955 0.13575812 0.54200006 4280033038
-0.066588581 0.13575812 0.54200006 4280820248
-0.065556198 0.13575812 0.54200006 4281214755
-0.064642861 0.13600858 0.54300004 4281609506
-0.063725717 0.13625905 0.54400003 4281414690
-0.062804759 0.13650952 0.54500002 4281219617
-0.061766669 0.13650952 0.54500002 4281546785
-0.060839999 0.13676001 0.546 4281874214
-0.059799999 0.13676001 0.546 4281611819
-0.058867622 0.13701048 0.54700005 4281414954
-0.058037147 0.13751143 0.54900002 4281545513
-0.056991432 0.13751143 0.54900002 4281741866
-0.056251429 0.13826287 0.55200005 4281807915
-0.055500001 0.13901427 0.55500001 4281874210
-0.054442856 0.13901427 0.55500001 4281807130
-0.053385712 0.13901427 0.55500001 4281740557
-0.052422862 0.13926478 0.55600005 4281674241
-0.051548574 0.13976572 0.55800003 4281542929
-0.050485715 0.13976572 0.55800003 4281281057
-0.049511429 0.14001618 0.55900002 4281084966
-0.048533332 0.14026666 0.56 4281674796
-0.047466666 0.14026666 0.56 4282330401
-0.02195143 0.14803143 0.59100002 4281022250
-0.020755239 0.14753048 0.58900005 4281683761
-0.019666668 0.14778097 0.59000003 4282271289
-0.018574286 0.14803143 0.59100002 4282927425
-0.017448572 0.14803143 0.59100002 4282992969
-0.016295239 0.14778097 0.59000003 4283125069
-0.015171429 0.14778097 0.59000003 4283387729
-0.014023811 0.14753048 0.58900005 4283646780
-0.012901906 0.14753048 0.58900005 4281540903
-0.011780001 0.14753048 0.58900005 4279507490
-0.12632857 0.14007142 0.55500001 4283454284
-0.12527142 0.14007142 0.55500001 4283319619
-0.12376667 0.13956667 0.55300003 4283121979
-0.12249144 0.13931429 0.55200005 4282989608
-0.12144001 0.13931429 0.55200005 4282857494
-0.12017047 0.1390619 0.551 4282726434
-0.11868858 0.13855714 0.54900002 4282923310
-0.11742858 0.13830477 0.54800004 4283185450
-0.11638477 0.13830477 0.54800004 4283185702
-0.11492 0.13780001 0.546 4283185195
-0.11367143 0.13754763 0.54500002 4283249968
-0.11242667 0.13729525 0.54400003 4283382834
-0.11139048 0.13729525 0.54400003 4283716660
-0.11015144 0.13704287 0.54300004 4284044095
-0.1089162 0.1367905 0.54200006 4283781962
-0.10788383 0.1367905 0.54200006 4283584832
-0.10685144 0.1367905 0.54200006 4283518774
-0.10542858 0.13628572 0.54000002 4283518776
-0.10420667 0.13603334 0.53900003 4283321915
-0.10298858 0.13578096 0.53800005 4283189310
-0.10196382 0.13578096 0.53800005 4283056706
-0.10093905 0.13578096 0.53800005 4282990909
-0.099914297 0.13578096 0.53800005 4283449401
-0.098705709 0.13552856 0.537 4283974718
-0.097682856 0.13552856 0.537 4283649348
-0.096479997 0.1352762 0.53600001 4283387196
-0.095459051 0.1352762 0.53600001 4283518517
-0.094438098 0.1352762 0.53600001 4283646519
-0.093417145 0.1352762 0.53600001 4283252793
-0.09274096 0.13578096 0.53800005 4282858033
-0.091375239 0.1352762 0.53600001 4282198569
-0.090354286 0.1352762 0.53600001 4281544988
-0.089000002 0.13477144 0.53400004 4281807375
-0.088806674 0.13603334 0.53900003 4282135324
-0.087617151 0.13578096 0.53800005 4282267690
-0.086270474 0.1352762 0.53600001 4282464812
-0.085090473 0.13502382 0.53500003 4282337070
-0.084071428 0.13502382 0.53500003 4282203936
-0.083052382 0.13502382 0.53500003 4281214738
-0.082186669 0.1352762 0.53600001 4280297759
-0.081317142 0.13552856 0.537 4281346861
-0.080294281 0.13552856 0.537 4282462506
-0.079419054 0.13578096 0.53800005 4283119399
-0.078394294 0.13578096 0.53800005 4283774774
-0.077369526 0.13578096 0.53800005 4282724677
-0.076344773 0.13578096 0.53800005 4281740327
-0.075320005 0.13578096 0.53800005 4282001161
-0.074433342 0.13603334 0.53900003 4282327051
-0.073406667 0.13603334 0.53900003 4281275918
-0.072380006 0.13603334 0.53900003 4280227592
-0.071485721 0.13628572 0.54000002 4280028675
-0.070457146 0.13628572 0.54000002 4279831557
-0.069557145 0.1365381 0.54100001 4279962120
-0.068653338 0.1367905 0.54200006 4280160526
-0.067620955 0.1367905 0.54200006 4280624661
-0.066588581 0.1367905 0.54200006 4281149726
-0.065556198 0.1367905 0.54200006 4281478183
-0.064642861 0.13704287 0.54300004 4281807143
-0.063608572 0.13704287 0.54300004 4281612071
-0.062689528 0.13729525 0.54400003 4281480998
-0.061766669 0.13754763 0.54500002 4281743142
-0.060728572 0.13754763 0.54500002 4282004777
-0.05990953 0.13805239 0.54700005 4281545772
-0.059082858 0.13855714 0.54900002 4281152554
-0.058142859 0.13880952 0.55000001 4281480233
-0.057302862 0.13931429 0.55200005 4281872681
-0.056353338 0.13956667 0.55300003 4281808425
-0.055500001 0.14007142 0.55500001 4281808420
-0.054442856 0.14007142 0.55500001 4281742112
-0.053385712 0.14007142 0.55500001 4281675028
-0.052422862 0.14032382 0.55600005 4281543175
-0.05164095 0.14108096 0.55900002 4281411861
-0.050485715 0.14082858 0.55800003 4281150243
-0.049600001 0.14133333 0.56 4280888879
-0.048533332 0.14133333 0.56 4281872444
-0.047466666 0.14133333 0.56 4282855467
-0.02195143 0.14915715 0.59100002 4280893992
-0.020790478 0.14890477 0.59000003 4281550129
-0.019700002 0.14915715 0.59100002 4282206266
-0.018574286 0.14915715 0.59100002 4282861637
-0.017419048 0.14890477 0.59000003 4282993233
-0.016295239 0.14890477 0.59000003 4283124556
-0.015145715 0.14865239 0.58900005 4283453512
-0.014 0.14840001 0.588 4283779130
-0.01288 0.14840001 0.588 4281806124
-0.011759999 0.14840001 0.588 4279835430
-0.12632857 0.14112857 0.55500001 4283716173
-0.12527142 0.14112857 0.55500001 4283581767
-0.12376667 0.14062001 0.55300003 4283383361
-0.12249144 0.14036573 0.55200005 4283250742
-0.12144001 0.14036573 0.55200005 4283119404
-0.11995238 0.13985714 0.55000001 4282988078
-0.11868858 0.13960287 0.54900002 4283120432
-0.11742858 0.13934858 0.54800004 4283318056
-0.11638477 0.13934858 0.54800004 4282923553
-0.11492 0.13883999 0.546 4282595369
-0.11367143 0.13858572 0.54500002 4282923570
-0.11242667 0.13833143 0.54400003 4283318067
-0.11118572 0.13807715 0.54300004 4283584565
-0.10994858 0.13782288 0.54200006 4283846720
-0.1089162 0.13782288 0.54200006 4283715148
-0.10788383 0.13782288 0.54200006 4283649343
-0.10685144 0.13782288 0.54200006 4283715122
-0.10542858 0.13731429 0.54000002 4283715637
-0.10420667 0.13706 0.53900003 4283452984
-0.10298858 0.13680573 0.53800005 4283254844
-0.10196382 0.13680573 0.53800005 4283187777
-0.10093905 0.13680573 0.53800005 4283120188
-0.099914297 0.13680573 0.53800005 4283317560
-0.098705709 0.13655142 0.537 4283580733
-0.097682856 0.13655142 0.537 4283253315
-0.096479997 0.13629714 0.53600001 4282991676
-0.095459051 0.13629714 0.53600001 4282794550
-0.094614282 0.13655142 0.537 4282531894
-0.093591429 0.13655142 0.537 4282596662
-0.092568569 0.13655142 0.537 4282724399
-0.091545716 0.13655142 0.537 4281938217
-0.090354286 0.13629714 0.53600001 4281217826
-0.089166671 0.13604286 0.53500003 4281873180
-0.088641912 0.13680573 0.53800005 4282594087
-0.087617151 0.13680573 0.53800005 4282924082
-0.086270474 0.13629714 0.53600001 4283317551
-0.085249521 0.13629714 0.53600001 4282727468
-0.084228575 0.13629714 0.53600001 4282203158
-0.083207622 0.13629714 0.53600001 4281675009
-0.082186669 0.13629714 0.53600001 4281149206
-0.081165716 0.13629714 0.53600001 4281937707
-0.080294281 0.13655142 0.537 4282726440
-0.079271428 0.13655142 0.537 4282923045
-0.078394294 0.13680573 0.53800005 4283054123
-0.077369526 0.13680573 0.53800005 4282265393
-0.076344773 0.13680573 0.53800005 4281476894
-0.075320005 0.13680573 0.53800005 4281607948
-0.074295245 0.13680573 0.53800005 4281673483
-0.073406667 0.13706 0.53900003 4281081867
-0.072380006 0.13706 0.53900003 4280490502
-0.071485721 0.13731429 0.54000002 4280294145
-0.07058762 0.13756858 0.54100001 4280098052
-0.06968572 0.13782288 0.54200006 4280425479
-0.068653338 0.13782288 0.54200006 4280687377
-0.067620955 0.13782288 0.54200006 4281085468
-0.066588581 0.13782288 0.54200006 4281478947
-0.065556198 0.13782288 0.54200006 4281807147
-0.064523816 0.13782288 0.54200006 4282136108
-0.063608572 0.13807715 0.54300004 4281611821
-0.062689528 0.13833143 0.54400003 4281086764
-0.061653331 0.13833143 0.54400003 4281676331
-0.06095143 0.13909429 0.54700005 4282330668
-0.06001905 0.13934858 0.54800004 4281872429
-0.059190478 0.13985714 0.55000001 4281479979
-0.058037147 0.13960287 0.54900002 4281807402
-0.057302862 0.14036573 0.55200005 4282134824
-0.056353338 0.14062001 0.55300003 4282004519
-0.055500001 0.14112857 0.55500001 4281873959
-0.054442856 0.14112857 0.55500001 4281544999
-0.05348191 0.14138287 0.55600005 4281216282
-0.052517146 0.14163715 0.55700004 4281346062
-0.05164095 0.14214572 0.55900002 4281477145
-0.050576191 0.14214572 0.55900002 4281478437
-0.049600001 0.1424 0.56 4281544760
-0.048533332 0.1424 0.56 4282003788
-0.047466666 0.1424 0.56 4282528309
-0.02195143 0.15028287 0.59100002 4281024038
-0.020790478 0.15002859 0.59000003 4281679408
-0.019700002 0.15028287 0.59100002 4282204731
-0.018542858 0.15002859 0.59000003 4282664778
-0.017419048 0.15002859 0.59000003 4282927962
-0.01626762 0.1497743 0.58900005 4283189836
-0.015145715 0.1497743 0.58900005 4283321663
-0.014 0.14951999 0.588 4283452728
-0.012858096 0.14926572 0.58700001 4282067506
-0.011740001 0.14926572 0.58700001 4280622122
-0.1265562 0.14244191 0.55600005 4284043599
-0.12527142 0.14218572 0.55500001 4283844165
-0.12376667 0.14167334 0.55300003 4283639867
-0.12249144 0.14141715 0.55200005 4283514421
-0.12122 0.14116095 0.551 4283382830
-0.11973429 0.14064857 0.54900002 4283317552
-0.11847239 0.14039238 0.54800004 4283383347
-0.11742858 0.14039238 0.54800004 4283448366
-0.11638477 0.14039238 0.54800004 4282726953
-0.11492 0.13988 0.546 4282006318
-0.11367143 0.13962382 0.54500002 4282596402
-0.11242667 0.13936763 0.54400003 4283253557
-0.11118572 0.13911144 0.54300004 4283452471
-0.10994858 0.13885525 0.54200006 4283649598
-0.1089162 0.13885525 0.54200006 4283715397
-0.10788383 0.13885525 0.54200006 4283780413
-0.10685144 0.13885525 0.54200006 4283846198
-0.10542858 0.13834287 0.54000002 4283977272
-0.10420667 0.13808668 0.53900003 4283649851
-0.10298858 0.1378305 0.53800005 4283320894
-0.10196382 0.1378305 0.53800005 4283253569
-0.10093905 0.1378305 0.53800005 4283252021
-0.099914297 0.1378305 0.53800005 4283185193
-0.098705709 0.13757429 0.537 4283187249
-0.097864769 0.1378305 0.53800005 4282925882
-0.096660003 0.13757429 0.537 4282663983
-0.095459051 0.1373181 0.53600001 4282072099
-0.094438098 0.1373181 0.53600001 4281482028
-0.093417145 0.1373181 0.53600001 4282006325
-0.092396185 0.1373181 0.53600001 4282595378
-0.091375239 0.1373181 0.53600001 4281742639
-0.090354286 0.1373181 0.53600001 4280956205
-0.089333333 0.1373181 0.53600001 4282005035
-0.088312387 0.1373181 0.53600001 4283054896
-0.087291434 0.1373181 0.53600001 4283580725
-0.086109526 0.13706191 0.53500003 4284170035
-0.085090473 0.13706191 0.53500003 4283186224
-0.084071428 0.13706191 0.53500003 4282267426
-0.083052382 0.13706191 0.53500003 4282135316
-0.082186669 0.1373181 0.53600001 4282005793
-0.081165716 0.1373181 0.53600001 4282531631
-0.080294281 0.13757429 0.537 4283055917
-0.079419054 0.1378305 0.53800005 4282728235
-0.078540005 0.13808668 0.53900003 4282398248
-0.077369526 0.1378305 0.53800005 4281806117
-0.076344773 0.1378305 0.53800005 4281281561
-0.075320005 0.1378305 0.53800005 4281150478
-0.074433342 0.13808668 0.53900003 4281084174
-0.073542856 0.13834287 0.54000002 4280886286
-0.072380006 0.13808668 0.53900003 4280755466
-0.071353339 0.13808668 0.53900003 4280559367
-0.07058762 0.13859905 0.54100001 4280428556
-0.06968572 0.13885525 0.54200006 4280822034
-0.068653338 0.13885525 0.54200006 4281282328
-0.067620955 0.13885525 0.54200006 4281546271
-0.066588581 0.13885525 0.54200006 4281807909
-0.065556198 0.13885525 0.54200006 4282135340
-0.064523816 0.13885525 0.54200006 4282528812
-0.063608572 0.13911144 0.54300004 4281612845
-0.06257429 0.13911144 0.54300004 4280759336
-0.062106673 0.14039238 0.54800004 4281676323
-0.061062861 0.14039238 0.54800004 4282658090
-0.06001905 0.14039238 0.54800004 4282199602
-0.059190478 0.14090475 0.55000001 4281806638
-0.058037147 0.14064857 0.54900002 4282069290
-0.057302862 0.14141715 0.55200005 4282397226
-0.056353338 0.14167334 0.55300003 4282135339
-0.055500001 0.14218572 0.55500001 4281938223
-0.054442856 0.14218572 0.55500001 4281347891
-0.05348191 0.14244191 0.55600005 4280822559
-0.052517146 0.14269809 0.55700004 4281149196
-0.051363815 0.14244191 0.55600005 4281542937
-0.050485715 0.14295429 0.55800003 4281872166
-0.049511429 0.14321047 0.55900002 4282265649
-0.04844667 0.14321047 0.55900002 4282200636
-0.047466666 0.14346667 0.56 4282200109
-0.020790478 0.15115239 0.59000003 4281874991
-0.019666668 0.15115239 0.59000003 4282202937
-0.018542858 0.15115239 0.59000003 4282533187
-0.017419048 0.15115239 0.59000003 4282928206
-0.01626762 0.15089619 0.58900005 4283321414
-0.015120001 0.15064 0.588 4283256125
-0.01397619 0.15038382 0.58700001 4283191096
-0.012836191 0.15012762 0.58600003 4282329140
-0.011720001 0.15012762 0.58600003 4281476388
-0.12632857 0.14324285 0.55500001 4283978066
-0.12527142 0.14324285 0.55500001 4283909956
-0.12376667 0.14272667 0.55300003 4283778614
-0.12249144 0.14246859 0.55200005 4283647283
-0.12122 0.14221047 0.551 4283581233
-0.11973429 0.14169429 0.54900002 4283580723
-0.11847239 0.1414362 0.54800004 4283907382
-0.11742858 0.1414362 0.54800004 4284234292
-0.11638477 0.1414362 0.54800004 4283316786
-0.11492 0.14092 0.546 4282465074
-0.11387999 0.14092 0.546 4282793267
-0.11263334 0.14066191 0.54500002 4283123510
-0.11139048 0.14040382 0.54400003 4283320890
-0.10994858 0.13988763 0.54200006 4283452732
-0.1089162 0.13988763 0.54200006 4283583550
-0.10788383 0.13988763 0.54200006 4283714620
-0.10685144 0.13988763 0.54200006 4283714618
-0.10542858 0.13937144 0.54000002 4283780412
-0.10420667 0.13911335 0.53900003 4283387198
-0.10298858 0.13885525 0.53800005 4282993727
-0.10196382 0.13885525 0.53800005 4283122753
-0.10093905 0.13885525 0.53800005 4283252781
-0.099914297 0.13885525 0.53800005 4283252762
-0.09888953 0.13885525 0.53800005 4283252774
-0.097864769 0.13885525 0.53800005 4283122482
-0.096660003 0.13859713 0.537 4282991905
-0.095637143 0.13859713 0.537 4282662673
-0.094614282 0.13859713 0.537 4282333987
-0.093591429 0.13859713 0.537 4282596149
-0.092568569 0.13859713 0.537 4282924085
-0.091545716 0.13859713 0.537 4282398774
-0.090522863 0.13859713 0.537 4281937464
-0.089166671 0.13808095 0.53500003 4282465082
-0.088147625 0.13808095 0.53500003 4283056953
-0.08712858 0.13808095 0.53500003 4283318841
-0.086109526 0.13808095 0.53500003 4283580983
-0.085090473 0.13808095 0.53500003 4282988597
-0.084071428 0.13808095 0.53500003 4282330670
-0.083052382 0.13808095 0.53500003 4282464039
-0.082186669 0.13833904 0.53600001 4282661677
-0.081317142 0.13859713 0.537 4282728756
-0.080443822 0.13885525 0.53800005 4282794802
-0.079566672 0.13911335 0.53900003 4282335537
-0.078540005 0.13911335 0.53900003 4281873445
-0.077513337 0.13911335 0.53900003 4281019929
-0.076486669 0.13911335 0.53900003 4280166677
-0.075320005 0.13885525 0.53800005 4280691217
-0.074433342 0.13911335 0.53900003 4281216017
-0.073542856 0.13937144 0.54000002 4281149713
-0.072380006 0.13911335 0.53900003 4281083663
-0.071353339 0.13911335 0.53900003 4280953358
-0.070718102 0.13988763 0.54200006 4280888853
-0.06968572 0.13988763 0.54200006 4281608733
-0.068653338 0.13988763 0.54200006 4282331679
-0.067620955 0.13988763 0.54200006 4282135586
-0.066588581 0.13988763 0.54200006 4281939496
-0.065556198 0.13988763 0.54200006 4282069550
-0.064523816 0.13988763 0.54200006 4282135085
-0.063608572 0.14014573 0.54300004 4281611309
-0.06257429 0.14014573 0.54300004 4281153060
-0.062106673 0.1414362 0.54800004 4281675547
-0.061062861 0.1414362 0.54800004 4282199337
-0.06001905 0.1414362 0.54800004 4282002744
-0.059082858 0.14169429 0.54900002 4281806129
-0.057931431 0.1414362 0.54800004 4281937194
-0.057095237 0.14195238 0.55000001 4282133804
-0.056149524 0.14221047 0.551 4282004271
-0.055500001 0.14324285 0.55500001 4281938231
-0.054442856 0.14324285 0.55500001 4281544256
-0.05348191 0.14350095 0.55600005 4281149989
-0.052517146 0.14375906 0.55700004 4281346570
-0.051363815 0.14350095 0.55600005 4281608984
-0.050395243 0.14375906 0.55700004 4282330663
-0.049422856 0.14401715 0.55800003 4283052329
-0.048360001 0.14401715 0.55800003 4282660140
-0.020825714 0.15253429 0.59100002 4281875247
-0.019700002 0.15253429 0.59100002 4282334007
-0.018542858 0.1522762 0.59000003 4282860605
-0.017419048 0.1522762 0.59000003 4283123011
-0.01626762 0.15201811 0.58900005 4283385663
-0.015120001 0.15176001 0.588 4283125052
-0.01397619 0.15150189 0.58700001 4282929721
-0.012836191 0.15124381 0.58600003 4282198326
-0.011720001 0.15124381 0.58600003 4281476639
-0.12632857 0.1443 0.55500001 4283978061
-0.12527142 0.1443 0.55500001 4283977026
-0.12421428 0.1443 0.55500001 4283910711
-0.12249144 0.14352001 0.55200005 4283844403
-0.12144001 0.14352001 0.55200005 4283842863
-0.11973429 0.14274001 0.54900002 4283843636
-0.11847239 0.14248 0.54800004 4284434233
-0.11742858 0.14248 0.54800004 4285088311
-0.11638477 0.14248 0.54800004 4283973174
-0.11492 0.14196 0.546 4282924597
-0.11367143 0.1417 0.54500002 4282990132
-0.11242667 0.14144 0.54400003 4283057723
-0.11118572 0.14118001 0.54300004 4283189570
-0.10994858 0.14092001 0.54200006 4283320895
-0.1089162 0.14092001 0.54200006 4283452476
-0.10788383 0.14092001 0.54200006 4283648828
-0.10685144 0.14092001 0.54200006 4283581757
-0.10542858 0.14040001 0.54000002 4283584061
-0.1044 0.14040001 0.54000002 4283125310
-0.10318001 0.14014 0.53900003 4282731585
-0.10196382 0.13988 0.53800005 4282991940
-0.10093905 0.13988 0.53800005 4283319611
-0.099914297 0.13988 0.53800005 4283319601
-0.098705709 0.13961999 0.537 4283384884
-0.097864769 0.13988 0.53800005 4283319352
-0.096840009 0.13988 0.53800005 4283319086
-0.095637143 0.13961999 0.537 4283253540
-0.094614282 0.13961999 0.537 4283187245
-0.093591429 0.13961999 0.537 4283186741
-0.092568569 0.13961999 0.537 4283251765
-0.091545716 0.13961999 0.537 4283120438
-0.090522863 0.13961999 0.537 4282989878
-0.089499995 0.13961999 0.537 4282990647
-0.088147625 0.1391 0.53500003 4283056697
-0.08712858 0.1391 0.53500003 4283057212
-0.086109526 0.1391 0.53500003 4283056440
-0.085090473 0.1391 0.53500003 4282725685
-0.084071428 0.1391 0.53500003 4282464306
-0.083052382 0.1391 0.53500003 4282858287
-0.082340002 0.13961999 0.537 4283318071
-0.081317142 0.13961999 0.537 4282926144
-0.08059334 0.14014 0.53900003 4282598198
-0.079566672 0.14014 0.53900003 4282008364
-0.078540005 0.14014 0.53900003 4281409820
-0.077513337 0.14014 0.53900003 4280225037
-0.076486669 0.14014 0.53900003 4279050514
-0.075460002 0.14014 0.53900003 4280166678
-0.074433342 0.14014 0.53900003 4281346844
-0.073406667 0.14014 0.53900003 4281347361
-0.072245724 0.13988 0.53800005 4281413405
-0.071220957 0.13988 0.53800005 4281413914
-0.07058762 0.14066 0.54100001 4281413150
-0.06968572 0.14092001 0.54200006 4282395427
-0.068653338 0.14092001 0.54200006 4283445542
-0.067620955 0.14092001 0.54200006 4282789929
-0.066588581 0.14092001 0.54200006 4282134316
-0.065556198 0.14092001 0.54200006 4281937712
-0.064523816 0.14092001 0.54200006 4281807669
-0.06325715 0.14040001 0.54000002 4281676346
-0.062228575 0.14040001 0.54000002 4281546031
-0.06222 0.14274001 0.54900002 4281609507
-0.061174288 0.14274001 0.54900002 4281740586
-0.060128573 0.14274001 0.54900002 4281806130
-0.059082858 0.14274001 0.54900002 4281871407
-0.058037147 0.14274001 0.54900002 4281870893
-0.057095237 0.14300001 0.55000001 4281872171
-0.056149524 0.14326 0.551 4281938986
-0.055500001 0.1443 0.55500001 4282003759
-0.054442856 0.1443 0.55500001 4281740853
-0.05348191 0.14456001 0.55600005 4281477412
-0.052422862 0.14456001 0.55600005 4281607186
-0.051456194 0.14482 0.55700004 4281739807
-0.050395243 0.14482 0.55700004 4282789420
-0.049334288 0.14482 0.55700004 4283839284
-0.048273336 0.14482 0.55700004 4283185213
-0.020790478 0.1534 0.59000003 4281874230
-0.019700002 0.15366 0.59100002 4282530619
-0.018542858 0.1534 0.59000003 4283188290
-0.017419048 0.1534 0.59000003 4283319369
-0.016295239 0.1534 0.59000003 4283451716
-0.015120001 0.15288 0.588 4283059519
-0.01397619 0.15262 0.58700001 4282732347
-0.012858096 0.15262 0.58700001 4282133304
-0.12527142 0.14535715 0.55500001 4283977792
-0.12376667 0.14483334 0.55300003 4283844920
-0.12249144 0.14457144 0.55200005 4283648307
-0.121 0.14404762 0.55000001 4283713582
-0.11973429 0.14378572 0.54900002 4283778869
-0.11847239 0.14352381 0.54800004 4284108092
-0.11742858 0.14352381 0.54800004 4284441659
-0.11638477 0.14352381 0.54800004 4283711546
-0.11492 0.14299999 0.546 4282923575
-0.11367143 0.14273809 0.54500002 4282990133
-0.11242667 0.1424762 0.54400003 4283057471
-0.11118572 0.1422143 0.54300004 4283190090
-0.10994858 0.1419524 0.54200006 4283388482
-0.1089162 0.1419524 0.54200006 4283453243
-0.10788383 0.1419524 0.54200006 4283583037
-0.10685144 0.1419524 0.54200006 4283714624
-0.10542858 0.14142857 0.54000002 4283846463
-0.1044 0.14142857 0.54000002 4283518270
-0.10318001 0.14116667 0.53900003 4283124803
-0.10196382 0.14090477 0.53800005 4283255880
-0.10093905 0.14090477 0.53800005 4283321416
-0.099914297 0.14090477 0.53800005 4283385161
-0.098705709 0.14064285 0.537 4283450179
-0.097864769 0.14090477 0.53800005 4283319614
-0.096840009 0.14090477 0.53800005 4283254587
-0.095637143 0.14064285 0.537 4283254584
-0.094614282 0.14064285 0.537 4283320375
-0.093591429 0.14064285 0.537 4283253814
-0.092568569 0.14064285 0.537 4283253046
-0.0917162 0.14090477 0.53800005 4283122230
-0.090522863 0.14064285 0.537 4283056949
-0.089499995 0.14064285 0.537 4283122996
-0.088312387 0.14038096 0.53600001 4283124281
-0.08712858 0.14011905 0.53500003 4283123263
-0.086109526 0.14011905 0.53500003 4283121722
-0.085090473 0.14011905 0.53500003 4282859061
-0.084071428 0.14011905 0.53500003 4282531126
-0.083052382 0.14011905 0.53500003 4282794295
-0.082033336 0.14011905 0.53500003 4283123265
-0.081317142 0.14064285 0.537 4282599500
-0.08059334 0.14116667 0.53900003 4282076217
-0.079566672 0.14116667 0.53900003 4281805095
-0.078540005 0.14116667 0.53900003 4281470740
-0.077513337 0.14116667 0.53900003 4280882178
-0.076486669 0.14116667 0.53900003 4280228111
-0.075460002 0.14116667 0.53900003 4280887836
-0.074433342 0.14116667 0.53900003 4281480487
-0.073406667 0.14116667 0.53900003 4281546034
-0.072514281 0.14142857 0.54000002 4281611564
-0.071220957 0.14090477 0.53800005 4281610278
-0.07058762 0.14169048 0.54100001 4281610023
-0.06968572 0.1419524 0.54200006 4282199849
-0.068653338 0.1419524 0.54200006 4282724397
-0.067620955 0.1419524 0.54200006 4282397233
-0.066588581 0.1419524 0.54200006 4282070065
-0.065435238 0.14169048 0.54100001 4282004530
-0.064404763 0.14169048 0.54100001 4282004541
-0.06325715 0.14142857 0.54000002 4281873480
-0.062343806 0.14169048 0.54100001 4281808186
-0.061313331 0.14169048 0.54100001 4281807404
